# .PCD v0.7 - Point Cloud Data file format
VERSION 0.7
FIELDS x y z rgb
SIZE 4 4 4 4
TYPE F F F F
COUNT 1 1 1 1
WIDTH 1009
HEIGHT 1
VIEWPOINT 0 0 0 1 0 0 0
POINTS 1009
DATA ascii
0.64686668 -1.7132583 0.83223212 1.7793757e-38
-0.85243434 -1.7079743 0.83290988 1.2171262e-38
-0.84747541 -1.7079744 0.83290982 1.2723354e-38
-0.84251642 -1.7079744 0.83290982 1.281555e-38
-0.83755744 -1.7079744 0.83290982 1.2631159e-38
-0.83259851 -1.7079746 0.83290976 1.2077985e-38
-0.82763958 -1.7079746 0.83290976 1.1063474e-38
-0.82268053 -1.7079746 0.83290976 9.5883441e-39
-0.81772166 -1.7079747 0.8329097 9.2195602e-39
-0.81276274 -1.7079748 0.83290958 8.7582219e-39
-0.80780387 -1.7079749 0.83290946 7.7444301e-39
-0.80284494 -1.7079751 0.83290946 6.8224752e-39
-0.79788601 -1.7079754 0.83290935 6.9146708e-39
-0.79292715 -1.7079755 0.83290929 9.6801782e-39
-0.78796822 -1.7079756 0.83290923 1.1155668e-38
-0.75412279 -1.709831 0.83202845 1.0141519e-39
-0.63080859 -1.7076583 0.83305991 5.0707582e-39
-0.62763536 -1.7079955 0.83289975 7.6522359e-39
-0.62267637 -1.7079957 0.83289969 1.0418103e-38
-0.61771739 -1.7079959 0.83289963 1.152481e-38
-0.6127584 -1.7079959 0.83289957 1.1247864e-38
-0.60779935 -1.707996 0.83289951 1.0141156e-38
-0.60284042 -1.7079962 0.83289945 7.098702e-39
-0.59788138 -1.7079964 0.83289933 6.6380825e-39
-0.59292239 -1.7079966 0.83289921 7.5600388e-39
-0.5879634 -1.7079968 0.83289921 8.5738306e-39
-0.58300442 -1.7079968 0.83289909 9.1273646e-39
-0.57804543 -1.7079971 0.83289909 9.4039528e-39
-0.57308662 -1.7079978 0.83289874 1.0786887e-38
-0.56812793 -1.7079988 0.8328982 1.1985789e-38
-0.56316924 -1.7079997 0.83289778 1.2631157e-38
-0.55821049 -1.7080008 0.83289731 1.2907385e-38
-0.5532518 -1.7080019 0.83289677 1.2723356e-38
-0.54829305 -1.7080028 0.83289635 1.2355293e-38
-0.54498726 -1.7080034 0.83289605 1.1618088e-38
0.50358117 -1.7099031 0.83199418 1.6410822e-38
0.50796175 -1.7079123 0.83293927 1.6410822e-38
0.51260871 -1.7060648 0.83198994 1.6410822e-38
0.515374 -1.7050507 0.83429778 1.6410822e-38
0.6281696 -1.7050799 0.83063316 1.7148387e-38
0.63130414 -1.7062047 0.83375001 1.7240583e-38
0.63717699 -1.7086806 0.83257455 1.7424974e-38
-0.85580862 -1.7003024 0.83291173 1.0237319e-38
-0.85251486 -1.7003025 0.83291167 1.0514267e-38
-0.84757417 -1.7003026 0.83291161 1.2079068e-38
-0.84263343 -1.7003027 0.83291155 1.2723354e-38
-0.83769274 -1.7003028 0.83291149 1.2631157e-38
-0.83275205 -1.700303 0.83291137 1.1709202e-38
-0.82781136 -1.7003031 0.83291125 1.0787246e-38
-0.82287073 -1.7003033 0.83291125 9.9574854e-39
-0.81792998 -1.7003036 0.83291113 9.6805383e-39
-0.81298935 -1.7003036 0.83291107 9.2195602e-39
-0.80804867 -1.7003038 0.83291101 8.113214e-39
-0.80310792 -1.7003038 0.83291095 6.8224752e-39
-0.78169823 -1.7003045 0.83291066 1.1248221e-38
-0.75514328 -1.7033739 0.83144677 9.2231643e-40
-0.75495619 -1.7045575 0.8345319 1.0145121e-39
-0.62689853 -1.7003325 0.83289731 7.8366271e-39
-0.62195778 -1.7003326 0.83289719 1.0510298e-38
-0.61701697 -1.7003329 0.83289707 1.1340058e-38
-0.61207616 -1.700333 0.83289701 1.0233712e-38
-0.60713542 -1.7003331 0.83289695 8.2976053e-39
-0.60219455 -1.7003334 0.83289689 6.0849116e-39
-0.5972538 -1.7003336 0.83289683 6.7302796e-39
-0.59231299 -1.7003336 0.83289677 8.0213771e-39
-0.58737218 -1.7003338 0.83289671 9.1273646e-39
-0.58243138 -1.700334 0.83289665 9.6805383e-39
-0.57749057 -1.7003341 0.83289659 9.9574854e-39
-0.57254976 -1.7003343 0.83289647 1.069505e-38
-0.56760895 -1.7003343 0.83289647 1.1617007e-38
-0.56266814 -1.7003344 0.83289635 1.2723353e-38
-0.55772734 -1.7003345 0.83289635 1.2723356e-38
-0.55278653 -1.7003348 0.83289623 1.2263099e-38
-0.54784572 -1.700335 0.83289611 1.0606462e-38
-0.54352409 -1.702144 0.83203334 7.191978e-39
0.51763946 -1.7042164 0.83226109 1.6410822e-38
0.52328014 -1.7023354 0.83194208 1.6410822e-38
0.52823359 -1.7023555 0.83193249 1.9268887e-38
0.53299862 -1.7046019 0.83329415 1.6410822e-38
0.53689957 -1.7037091 0.83128691 1.6410822e-38
0.61331296 -1.7004935 0.83282053 1.6779605e-38
0.61695731 -1.7014654 0.83235705 1.6779605e-38
0.62249815 -1.7031057 0.83157462 1.7148387e-38
0.62750846 -1.7048566 0.83438993 1.7148387e-38
-0.75509411 -1.6962787 0.8348307 1.1067077e-39
-0.63019264 -1.6961761 0.83487964 2.9502602e-39
0.18799178 -1.6968578 0.83455449 0
0.54189098 -1.6978146 0.8322773 1.6410822e-38
0.54814106 -1.6967789 0.83277237 1.6410822e-38
0.55288899 -1.6962059 0.83304638 1.6410822e-38
0.55790305 -1.6956741 0.83148205 1.6410822e-38
0.56274801 -1.6954099 0.83160859 1.6410822e-38
0.56761551 -1.6952192 0.83170003 1.6410822e-38
0.5724979 -1.695076 0.83176857 1.6410822e-38
0.57749903 -1.695287 0.83166754 1.6410822e-38
0.58249122 -1.6954684 0.83158058 1.6410822e-38
0.58794665 -1.6959257 0.83257395 1.6410822e-38
0.59241176 -1.6964248 0.83294159 1.6410822e-38
0.59759468 -1.6971434 0.83259803 1.6410822e-38
0.60286444 -1.6980979 0.83214182 1.6410822e-38
0.60788214 -1.6991146 0.83347821 1.6595213e-38
-0.8525973 -1.6926914 0.83291107 1.1987231e-38
-0.84767485 -1.692692 0.8329109 1.2631519e-38
-0.8427524 -1.6926925 0.8329106 1.2907385e-38
-0.83782995 -1.692693 0.83291042 1.2631159e-38
-0.83290756 -1.6926935 0.83291018 1.2077985e-38
-0.82798505 -1.6926939 0.83290994 1.1063833e-38
-0.82306254 -1.6926942 0.83290982 9.6808985e-39
-0.81813991 -1.6926942 0.83290982 9.3117558e-39
-0.81321728 -1.6926944 0.8329097 8.8507777e-39
-0.80829465 -1.6926947 0.83290958 7.8366257e-39
-0.80173117 -1.6926949 0.83290946 6.5458883e-39
-0.79680854 -1.692695 0.83290941 7.190899e-39
-0.79188597 -1.6926951 0.83290935 9.8645695e-39
-0.78696328 -1.6926953 0.83290935 1.1247863e-38
-0.75471753 -1.6939063 0.83232898 1.0145107e-39
-0.62780416 -1.6927159 0.83289945 7.4678432e-39
-0.62288147 -1.692716 0.83289933 1.0326266e-38
-0.61795878 -1.6927161 0.83289939 1.1432255e-38
-0.61303604 -1.6927161 0.83289933 1.1247863e-38
-0.60811341 -1.6927164 0.83289921 9.8649296e-39
-0.60319066 -1.6927165 0.83289915 7.0990621e-39
-0.59826797 -1.6927166 0.83289909 6.4536927e-39
-0.59170437 -1.6927168 0.83289897 7.8366257e-39
-0.58678168 -1.692717 0.83289886 8.8507777e-39
-0.58185893 -1.6927171 0.83289886 9.2195616e-39
-0.57693624 -1.6927173 0.8328988 9.6805397e-39
-0.57201356 -1.6927176 0.83289862 1.1063833e-38
-0.56709099 -1.6927181 0.83289832 1.2077985e-38
-0.56216842 -1.6927187 0.83289814 1.2723353e-38
-0.55724585 -1.6927192 0.83289784 1.2907385e-38
-0.55232328 -1.6927197 0.83289754 1.2631519e-38
-0.54740065 -1.6927203 0.83289731 1.2079068e-38
-0.54426318 -1.6931392 0.83269668 8.6671081e-39
-0.85267907 -1.6851361 0.83291054 1.2907385e-38
-0.84777462 -1.6851366 0.83291042 1.2999581e-38
-0.84287012 -1.685137 0.83291012 1.2907385e-38
-0.83796555 -1.6851374 0.83290994 1.2723353e-38
-0.83306104 -1.6851379 0.8329097 1.2538963e-38
-0.82815659 -1.6851383 0.83290946 1.1801399e-38
-0.82325208 -1.6851389 0.83290929 1.0602855e-38
-0.81834757 -1.6851394 0.83290899 1.0141515e-38
-0.81180823 -1.6851401 0.83290875 9.5879812e-39
-0.80690372 -1.6851405 0.83290845 8.8504175e-39
-0.80199921 -1.685141 0.83290821 9.0348088e-39
-0.7970947 -1.6851414 0.83290803 9.9567651e-39
-0.79219007 -1.6851418 0.83290792 1.1708481e-38
-0.78728539 -1.6851419 0.8329078 1.2077625e-38
-0.7823807 -1.6851419 0.8329078 1.1616647e-38
-0.77747595 -1.685142 0.83290774 1.069469e-38
-0.6308223 -1.6871532 0.83375442 4.7941714e-39
-0.6270681 -1.6851542 0.8329019 8.6663864e-39
-0.62216336 -1.6851542 0.83290184 1.0786886e-38
-0.61725861 -1.6851544 0.83290172 1.1801038e-38
-0.61235392 -1.6851547 0.83290172 1.2077623e-38
-0.60744917 -1.6851548 0.8329016 1.1708482e-38
-0.60254443 -1.685155 0.83290148 9.8645681e-39
-0.59763986 -1.6851556 0.83290118 9.0348088e-39
-0.59273529 -1.6851562 0.83290088 8.9426118e-39
-0.58783066 -1.6851568 0.83290064 9.6798181e-39
-0.58292603 -1.6851573 0.8329004 1.0141155e-38
-0.57802147 -1.6851578 0.83290017 1.0325909e-38
-0.5731169 -1.6851585 0.83289981 1.1524452e-38
-0.56821227 -1.6851588 0.83289963 1.2446767e-38
-0.56330764 -1.6851594 0.83289933 1.2723353e-38
-0.55676818 -1.6851602 0.83289897 1.2907385e-38
-0.55186355 -1.6851609 0.83289868 1.2999581e-38
-0.54702818 -1.685361 0.8328023 1.0879083e-38
-0.63241327 -1.6821748 0.8343361 3.5034325e-39
-0.85276026 -1.6776354 0.83291012 1.2723354e-38
-0.84787357 -1.6776359 0.83290994 1.281555e-38
-0.84298688 -1.6776363 0.8329097 1.2907385e-38
-0.83810019 -1.6776369 0.83290946 1.2723354e-38
-0.83321357 -1.6776373 0.83290923 1.2631159e-38
-0.82832682 -1.6776378 0.83290899 1.2446769e-38
-0.82181132 -1.6776385 0.83290869 1.217018e-38
-0.81692457 -1.677639 0.83290845 1.2169819e-38
-0.81203794 -1.6776395 0.83290821 1.1893232e-38
-0.80715114 -1.6776398 0.83290803 1.1616645e-38
-0.80226445 -1.6776402 0.8329078 1.2262013e-38
-0.79737777 -1.6776407 0.83290756 1.2815187e-38
-0.79249108 -1.6776412 0.83290732 1.2630438e-38
-0.78760433 -1.6776417 0.83290708 1.2354212e-38
-0.78271759 -1.6776423 0.83290684 1.1893233e-38
-0.7778309 -1.6776427 0.8329066 1.1155668e-38
-0.77294421 -1.6776433 0.83290637 9.5883441e-39
-0.76805741 -1.6776435 0.83290625 7.1912591e-39
-0.63260007 -1.6770198 0.83320785 5.7161277e-39
-0.62796664 -1.6776482 0.83290398 9.127366e-39
-0.62307984 -1.6776487 0.83290374 1.1063473e-38
-0.61819309 -1.6776493 0.83290344 1.1893232e-38
-0.6133064 -1.6776497 0.83290321 1.2262016e-38
-0.60679066 -1.6776505 0.83290285 1.2722633e-38
-0.60190392 -1.6776512 0.83290255 1.2907383e-38
-0.59701711 -1.6776516 0.83290231 1.2261654e-38
-0.59213036 -1.6776521 0.83290207 1.1708841e-38
-0.58724356 -1.6776527 0.83290178 1.1985428e-38
-0.58235681 -1.6776532 0.83290148 1.2261656e-38
-0.57747006 -1.6776538 0.83290124 1.2262376e-38
-0.57258326 -1.6776543 0.832901 1.2446769e-38
-0.56769645 -1.6776549 0.83290076 1.26308e-38
-0.56280965 -1.6776555 0.83290046 1.2723354e-38
-0.55792284 -1.6776559 0.83290017 1.281555e-38
-0.55303609 -1.6776565 0.83289987 1.2907746e-38
-0.54821575 -1.6778474 0.83280766 1.0695052e-38
-0.84797186 -1.6701896 0.83290941 1.2907746e-38
-0.84310287 -1.67019 0.83290923 1.2999941e-38
-0.83823383 -1.6701905 0.83290899 1.2907385e-38
-0.83174187 -1.670191 0.83290869 1.2722994e-38
-0.82687289 -1.6701916 0.83290845 1.2722994e-38
-0.82200384 -1.6701921 0.83290815 1.2631159e-38
-0.81713486 -1.6701926 0.83290797 1.2631159e-38
-0.81226587 -1.6701931 0.83290768 1.2631159e-38
-0.80739683 -1.6701934 0.8329075 1.2907384e-38
-0.80252779 -1.6701939 0.83290732 1.2722994e-38
-0.7976588 -1.6701944 0.83290708 1.2538963e-38
-0.79278982 -1.6701949 0.83290684 1.2538603e-38
-0.78792065 -1.6701951 0.83290672 1.2446407e-38
-0.78305155 -1.6701955 0.83290654 1.2169819e-38
-0.77818239 -1.6701956 0.83290642 1.1616647e-38
-0.77331328 -1.6701961 0.83290625 1.0786886e-38
-0.76682103 -1.6701963 0.83290625 8.3898009e-39
-0.63535255 -1.6702003 0.83290416 6.9146708e-39
-0.63210636 -1.6702003 0.83290416 9.4039514e-39
-0.62723708 -1.6702003 0.83290416 1.0602495e-38
-0.62236786 -1.6702006 0.8329041 1.1616647e-38
-0.61749858 -1.6702006 0.8329041 1.2169819e-38
-0.61262929 -1.6702006 0.8329041 1.2446407e-38
-0.60776007 -1.6702008 0.83290398 1.2538603e-38
-0.60289097 -1.6702012 0.83290374 1.2538963e-38
-0.59802192 -1.6702018 0.8329035 1.2722993e-38
-0.59315282 -1.6702023 0.83290327 1.2907384e-38
-0.58828378 -1.6702027 0.83290303 1.2722994e-38
-0.58179164 -1.6702034 0.83290261 1.2631159e-38
-0.57692254 -1.670204 0.83290243 1.2631159e-38
-0.57205349 -1.6702046 0.83290207 1.2722994e-38
-0.56718439 -1.6702051 0.83290184 1.281519e-38
-0.56231529 -1.6702058 0.8329016 1.2907385e-38
-0.55744618 -1.6702062 0.8329013 1.299994e-38
-0.55257708 -1.6702068 0.83290112 1.299994e-38
-0.54783529 -1.6705694 0.83272487 8.5745523e-39
-0.63794392 -1.6685945 0.83368433 3.3190413e-39
-0.84806943 -1.662797 0.83290899 1.3091777e-38
-0.84321803 -1.6627975 0.83290875 1.3276168e-38
-0.83836657 -1.6627979 0.83290851 1.3091775e-38
-0.83189797 -1.6627985 0.83290815 1.281519e-38
-0.82704651 -1.6627989 0.83290797 1.2723354e-38
-0.82219505 -1.6627994 0.8329078 1.2722994e-38
-0.81734365 -1.6627998 0.83290756 1.2631159e-38
-0.81249213 -1.6628003 0.83290732 1.2631159e-38
-0.80764055 -1.6628004 0.8329072 1.281519e-38
-0.80278897 -1.6628008 0.83290708 1.2722994e-38
-0.79793745 -1.6628011 0.83290696 1.2631157e-38
-0.79308581 -1.6628013 0.83290684 1.2630798e-38
-0.78823423 -1.6628015 0.83290672 1.2538603e-38
-0.78338271 -1.6628019 0.8329066 1.2354212e-38
-0.77691394 -1.6628022 0.83290642 1.1801398e-38
-0.7720623 -1.6628023 0.83290631 1.1247864e-38
-0.76721072 -1.6628027 0.83290625 1.0049321e-38
-0.7623592 -1.6628029 0.83290607 7.6522359e-39
-0.75912482 -1.6628031 0.83290595 5.9005203e-39
-0.6418817 -1.6608568 0.83385575 3.3190427e-39
-0.6378336 -1.6628067 0.83290416 7.4678446e-39
-0.6329819 -1.6628067 0.83290416 1.0141518e-38
-0.6281302 -1.6628067 0.8329041 1.1155668e-38
-0.62166131 -1.6628069 0.8329041 1.1985429e-38
-0.61680955 -1.6628069 0.8329041 1.2446407e-38
-0.61195791 -1.662807 0.83290404 1.2538603e-38
-0.60710615 -1.662807 0.83290404 1.2630798e-38
-0.60225445 -1.662807 0.83290404 1.2631157e-38
-0.59740275 -1.6628071 0.83290404 1.2723353e-38
-0.59255105 -1.6628071 0.83290404 1.281519e-38
-0.58769935 -1.6628071 0.83290404 1.2722994e-38
-0.58284771 -1.6628075 0.83290386 1.2631159e-38
-0.57799619 -1.6628079 0.83290362 1.2722994e-38
-0.57314467 -1.6628084 0.83290327 1.2722994e-38
-0.56667602 -1.6628091 0.83290291 1.2907385e-38
-0.56182444 -1.6628097 0.83290273 1.3091777e-38
-0.55697298 -1.6628102 0.83290243 1.3276166e-38
-0.5521214 -1.6628109 0.83290219 1.3183972e-38
-0.54900879 -1.6631551 0.83273411 8.4823567e-39
-0.84655499 -1.6554576 0.83290833 1.3183972e-38
-0.841721 -1.6554581 0.83290821 1.3091775e-38
-0.83688694 -1.6554585 0.83290797 1.2907385e-38
-0.83205283 -1.6554587 0.8329078 1.2723354e-38
-0.82721871 -1.655459 0.83290768 1.2723354e-38
-0.8223846 -1.6554592 0.83290762 1.2631159e-38
-0.81755048 -1.6554595 0.83290744 1.2631159e-38
-0.81271636 -1.6554598 0.83290732 1.2631159e-38
-0.80788219 -1.65546 0.8329072 1.2722994e-38
-0.80304801 -1.6554601 0.83290708 1.2631159e-38
-0.7982139 -1.6554605 0.83290696 1.2631159e-38
-0.79337972 -1.6554606 0.83290696 1.2630798e-38
-0.78693414 -1.6554608 0.83290684 1.2538603e-38
-0.78209996 -1.655461 0.83290672 1.2446766e-38
-0.77726579 -1.6554611 0.8329066 1.2262016e-38
-0.77243161 -1.6554613 0.83290654 1.1801398e-38
-0.76759744 -1.6554615 0.83290648 1.115567e-38
-0.7627632 -1.6554617 0.83290637 1.0141518e-38
-0.64657533 -1.6550646 0.83310109 3.7803796e-39
-0.64190811 -1.6554656 0.83290446 8.2976053e-39
-0.63707435 -1.655467 0.8329038 1.0233712e-38
-0.63224 -1.6554668 0.83290386 1.1247864e-38
-0.62740564 -1.6554667 0.83290392 1.1801398e-38
-0.62257135 -1.6554667 0.83290392 1.2262016e-38
-0.61773705 -1.6554666 0.83290398 1.2446767e-38
-0.61290276 -1.6554666 0.83290398 1.2538603e-38
-0.60806847 -1.6554664 0.83290404 1.2630798e-38
-0.60323417 -1.6554664 0.83290404 1.2630798e-38
-0.59678841 -1.6554664 0.83290404 1.2631159e-38
-0.59195423 -1.6554666 0.83290398 1.2722994e-38
-0.58711994 -1.6554666 0.83290398 1.2631159e-38
-0.58228564 -1.6554666 0.83290398 1.2631159e-38
-0.57745135 -1.6554666 0.83290398 1.2631159e-38
-0.57261711 -1.6554667 0.83290392 1.2723354e-38
-0.56778282 -1.6554667 0.83290392 1.2723354e-38
-0.56294858 -1.6554668 0.83290386 1.2907385e-38
-0.55811441 -1.6554673 0.83290362 1.3091777e-38
-0.55172706 -1.6556312 0.83282328 1.0695052e-38
-0.75249124 -1.6542118 0.83351916 2.2126937e-39
-0.64884728 -1.6527947 0.83421391 2.5814776e-39
-0.8466562 -1.6481693 0.83290863 1.2999581e-38
-0.84183931 -1.6481695 0.83290851 1.3091775e-38
-0.83702248 -1.6481695 0.83290851 1.3091775e-38
-0.83220559 -1.6481698 0.83290839 1.2815548e-38
-0.82738876 -1.6481699 0.83290833 1.2723354e-38
-0.82257187 -1.64817 0.83290827 1.2631159e-38
-0.81775504 -1.6481702 0.83290815 1.2631159e-38
-0.81293815 -1.6481704 0.83290803 1.2631159e-38
-0.80812126 -1.6481705 0.83290797 1.2631159e-38
-0.80330443 -1.6481707 0.83290792 1.2538963e-38
-0.79688191 -1.6481709 0.8329078 1.2538963e-38
-0.79206502 -1.6481711 0.83290774 1.2630798e-38
-0.78724819 -1.6481712 0.83290768 1.2538962e-38
-0.7824313 -1.6481713 0.83290756 1.2538962e-38
-0.77761441 -1.6481714 0.83290744 1.2354212e-38
-0.77279758 -1.6481717 0.83290744 1.2262016e-38
-0.76798046 -1.6481714 0.83290756 1.1985429e-38
-0.75192302 -1.6481695 0.83290851 8.6663878e-39
-0.74710578 -1.6481689 0.83290875 5.8083247e-39
-0.65608281 -1.6455649 0.8341912 2.3048907e-39
-0.65229881 -1.6479945 0.83299464 5.3473465e-39
-0.64755762 -1.6481738 0.83290637 9.127366e-39
-0.64274144 -1.6481756 0.83290547 1.0325908e-38
-0.63792509 -1.6481773 0.8329047 1.134006e-38
-0.63310885 -1.6481791 0.8329038 1.1893233e-38
-0.62668687 -1.6481807 0.83290303 1.2262016e-38
-0.62186986 -1.6481806 0.83290303 1.2446407e-38
-0.61705291 -1.6481805 0.83290303 1.2446767e-38
-0.61223584 -1.6481805 0.83290309 1.2538963e-38
-0.60741889 -1.6481805 0.83290315 1.2630798e-38
-0.60260189 -1.6481804 0.83290315 1.2538963e-38
-0.59778488 -1.6481802 0.83290315 1.2538963e-38
-0.59296787 -1.6481802 0.83290321 1.2631159e-38
-0.58815086 -1.6481801 0.83290327 1.2631159e-38
-0.58172822 -1.64818 0.83290327 1.2631159e-38
-0.57691121 -1.64818 0.83290333 1.2631159e-38
-0.5720942 -1.64818 0.83290339 1.2723354e-38
-0.56727719 -1.64818 0.83290339 1.281555e-38
-0.56246018 -1.64818 0.83290339 1.2999581e-38
-0.55764318 -1.6481799 0.83290344 1.3091777e-38
-0.55339456 -1.6477618 0.83191806 1.0326269e-38
-0.84195626 -1.6409318 0.83290946 1.2999581e-38
-0.83715659 -1.6409318 0.83290935 1.3092137e-38
-0.83235693 -1.6409321 0.83290923 1.281555e-38
-0.82755727 -1.6409322 0.83290917 1.2723354e-38
-0.8227576 -1.6409323 0.83290911 1.2631159e-38
-0.81795794 -1.6409326 0.83290899 1.2631159e-38
-0.81315827 -1.6409327 0.83290887 1.2631159e-38
-0.80675864 -1.6409328 0.83290875 1.26308e-38
-0.80195898 -1.640933 0.83290875 1.2538964e-38
-0.79715931 -1.6409333 0.83290875 1.2538964e-38
-0.79235965 -1.6409334 0.83290863 1.2630798e-38
-0.78755999 -1.6409335 0.83290851 1.2538603e-38
-0.78276026 -1.6409336 0.83290845 1.2446767e-38
-0.77796036 -1.6409333 0.83290863 1.2354572e-38
-0.76196027 -1.6409316 0.83290952 1.1893233e-38
-0.75716025 -1.640931 0.83290976 1.134042e-38
-0.75236022 -1.6409304 0.83291006 1.0602855e-38
-0.74756014 -1.6409298 0.8329103 9.6808985e-39
-0.7427606 -1.6409302 0.83291012 8.2054097e-39
-0.73796093 -1.6409304 0.83291006 5.5320965e-39
-0.66262007 -1.640595 0.833076 4.240999e-39
-0.65796608 -1.6409328 0.83290881 7.8366271e-39
-0.65316677 -1.640934 0.83290827 9.4965072e-39
-0.64676809 -1.6409363 0.8329072 1.0786886e-38
-0.64196903 -1.6409379 0.83290631 1.1524451e-38
-0.63716996 -1.6409397 0.83290547 1.1985429e-38
-0.63237089 -1.6409414 0.83290464 1.2353851e-38
-0.62757182 -1.6409432 0.83290374 1.2354212e-38
-0.62277269 -1.6409448 0.83290291 1.2354572e-38
-0.61797345 -1.6409461 0.83290231 1.2446767e-38
-0.61317366 -1.6409463 0.83290219 1.2538963e-38
-0.60837388 -1.6409461 0.83290225 1.2630798e-38
-0.60197407 -1.6409461 0.83290231 1.2538964e-38
-0.59717429 -1.640946 0.83290231 1.26308e-38
-0.59237444 -1.6409459 0.83290231 1.26308e-38
-0.5875746 -1.6409459 0.83290237 1.2631159e-38
-0.58277476 -1.6409458 0.83290237 1.2631159e-38
-0.57797498 -1.6409458 0.83290237 1.2631159e-38
-0.57317519 -1.6409457 0.83290243 1.2631159e-38
-0.56677538 -1.6409457 0.83290243 1.2907385e-38
-0.56197554 -1.6409457 0.83290249 1.3183972e-38
-0.55731452 -1.6413276 0.83271348 1.0971279e-38
-0.73398876 -1.6393068 0.83371335 1.6598815e-39
-0.72977448 -1.6371582 0.83477628 1.4751301e-39
-0.66800117 -1.6382544 0.83423394 1.5673257e-39
-0.5580442 -1.6374097 0.83108926 8.9433348e-39
-0.83728981 -1.6337457 0.83291018 1.3092137e-38
-0.83250719 -1.6337459 0.83291006 1.281555e-38
-0.82772458 -1.633746 0.83291 1.2631159e-38
-0.82294202 -1.6337461 0.83290994 1.2631159e-38
-0.8181594 -1.6337463 0.83290988 1.2631159e-38
-0.81337678 -1.6337464 0.83290982 1.2631159e-38
-0.80699992 -1.6337466 0.8329097 1.2631159e-38
-0.80221736 -1.6337469 0.83290958 1.2538964e-38
-0.79743475 -1.633747 0.83290958 1.2538964e-38
-0.79265213 -1.6337471 0.83290946 1.2631159e-38
-0.78786927 -1.6337469 0.83290958 1.2538963e-38
-0.7830863 -1.6337463 0.83290988 1.2538603e-38
-0.77192605 -1.6337451 0.83291054 1.2262378e-38
-0.76714313 -1.6337445 0.83291078 1.2262376e-38
-0.76236033 -1.6337442 0.8329109 1.2077985e-38
-0.75757802 -1.6337451 0.83291054 1.1893595e-38
-0.75279564 -1.6337457 0.83291018 1.1616648e-38
-0.74801326 -1.6337463 0.83290988 1.1248224e-38
-0.7432307 -1.6337466 0.8329097 1.0786886e-38
-0.73685396 -1.6337469 0.83290958 9.8652897e-39
-0.7320714 -1.6337472 0.83290941 8.8507791e-39
-0.72728878 -1.6337475 0.83290929 7.4678446e-39
-0.72232437 -1.6333609 0.83310145 2.2126951e-39
-0.7170527 -1.6323109 0.83362323 1.8442713e-39
-0.71189487 -1.6314937 0.83402938 1.4754902e-39
-0.706743 -1.6306776 0.83443499 1.1067077e-39
-0.6954416 -1.6303182 0.83461356 8.301208e-40
-0.69247276 -1.6307889 0.83437961 1.291099e-39
-0.68801606 -1.6314955 0.83402842 1.4754902e-39
-0.68206775 -1.6324387 0.83355975 2.0283039e-39
-0.67767924 -1.6333212 0.83312124 2.3974451e-39
-0.67308563 -1.6337491 0.83290845 7.2834534e-39
-0.66670877 -1.6337492 0.83290839 9.127366e-39
-0.66192603 -1.6337492 0.83290839 1.0049681e-38
-0.65714335 -1.6337492 0.83290839 1.069505e-38
-0.65236068 -1.6337492 0.83290839 1.1247865e-38
-0.64757848 -1.6337504 0.83290786 1.1524812e-38
-0.64279634 -1.6337517 0.83290714 1.1893594e-38
-0.6380142 -1.6337531 0.83290648 1.2077985e-38
-0.63163811 -1.6337552 0.83290547 1.2262376e-38
-0.62685609 -1.633757 0.83290452 1.2354572e-38
-0.62207407 -1.6337585 0.83290374 1.2354573e-38
-0.61729205 -1.6337605 0.83290291 1.2538603e-38
-0.61250997 -1.6337621 0.83290207 1.2538963e-38
-0.60772777 -1.6337634 0.83290136 1.2631159e-38
-0.60294497 -1.6337633 0.83290136 1.2538964e-38
-0.59816223 -1.6337633 0.83290142 1.2538964e-38
-0.5933795 -1.6337633 0.83290148 1.2631159e-38
-0.58700246 -1.6337632 0.83290148 1.2631159e-38
-0.58221966 -1.6337631 0.83290154 1.2631159e-38
-0.57743692 -1.6337631 0.83290154 1.2631159e-38
-0.57265419 -1.633763 0.8329016 1.2631159e-38
-0.56787145 -1.633763 0.8329016 1.2723354e-38
-0.56308866 -1.6337628 0.83290166 1.3091778e-38
-0.55990112 -1.6337655 0.83290035 8.6667479e-39
-0.83265638 -1.6266105 0.83291095 1.2907746e-38
-0.82789075 -1.6266106 0.8329109 1.2907747e-38
-0.82312512 -1.6266108 0.83291078 1.2723354e-38
-0.81677091 -1.6266112 0.83291072 1.263116e-38
-0.81200522 -1.6266114 0.83291066 1.263116e-38
-0.80723953 -1.6266115 0.83291054 1.2722996e-38
-0.8024739 -1.6266116 0.83291048 1.2631159e-38
-0.79770797 -1.6266114 0.83291066 1.2631159e-38
-0.79294193 -1.6266106 0.8329109 1.2722996e-38
-0.77229035 -1.6266105 0.8329109 1.2262378e-38
-0.76752496 -1.6266115 0.8329106 1.2262378e-38
-0.76275957 -1.6266121 0.83291024 1.2262376e-38
-0.75799412 -1.6266127 0.83290988 1.217018e-38
-0.75322866 -1.6266133 0.83290964 1.1985791e-38
-0.74687457 -1.6266137 0.83290941 1.1893235e-38
-0.74210894 -1.626614 0.83290929 1.1708844e-38
-0.73734331 -1.6266142 0.83290911 1.1248224e-38
-0.73257768 -1.6266145 0.83290899 1.0879442e-38
-0.72781193 -1.6266146 0.83290899 1.0418464e-38
-0.72304624 -1.6266146 0.83290899 9.9571266e-39
-0.71828163 -1.6266172 0.83290768 9.5883441e-39
-0.71192896 -1.6266207 0.83290595 9.2195616e-39
-0.70716435 -1.6266233 0.83290464 9.0351703e-39
-0.70213169 -1.6277043 0.83354908 6.1774659e-39
-0.69802141 -1.6282369 0.8338753 4.7945329e-39
-0.69286728 -1.6266237 0.83290446 9.0351703e-39
-0.6881004 -1.6266214 0.83290559 9.3117558e-39
-0.68333364 -1.6266191 0.83290672 9.4961485e-39
-0.67697799 -1.6266162 0.83290815 9.9571266e-39
-0.67221218 -1.6266161 0.83290815 1.0510659e-38
-0.66744661 -1.6266165 0.83290803 1.0879442e-38
-0.6626808 -1.6266165 0.83290803 1.134006e-38
-0.65791506 -1.6266165 0.83290803 1.1617007e-38
-0.65314931 -1.6266165 0.83290803 1.1893235e-38
-0.64838362 -1.6266165 0.83290803 1.1985789e-38
-0.64202976 -1.6266179 0.83290732 1.217018e-38
-0.63726455 -1.6266192 0.83290666 1.2262376e-38
-0.63249934 -1.6266205 0.83290601 1.2262378e-38
-0.62773412 -1.6266218 0.83290535 1.2354573e-38
-0.62296891 -1.6266233 0.8329047 1.2354573e-38
-0.6166153 -1.6266251 0.83290368 1.2538963e-38
-0.6118502 -1.6266268 0.83290285 1.2722996e-38
-0.60708511 -1.6266285 0.83290201 1.2631159e-38
-0.60232002 -1.6266303 0.83290112 1.2631159e-38
-0.59755456 -1.6266314 0.83290064 1.2631159e-38
-0.59278882 -1.6266314 0.83290064 1.2722996e-38
-0.58802295 -1.6266313 0.83290064 1.263116e-38
-0.58166856 -1.6266313 0.83290064 1.263116e-38
-0.57690269 -1.6266311 0.8329007 1.2723354e-38
-0.57213688 -1.6266311 0.8329007 1.2815551e-38
-0.56737107 -1.626631 0.83290076 1.2907747e-38
-0.56350464 -1.6271232 0.83147198 1.0141878e-38
0.23016936 -1.6271052 0.83266401 0
0.36037886 -1.6266626 0.83288503 1.6584844e-39
-0.56607604 -1.6216469 0.83184814 8.6667479e-39
0.22981872 -1.6229275 0.83120584 0
0.36011529 -1.6239125 0.83071196 1.4740945e-39
-0.83122158 -1.6195258 0.83291179 1.3091777e-38
-0.82805568 -1.6195259 0.83291173 1.2999943e-38
-0.82330692 -1.619526 0.83291161 1.281555e-38
-0.81697512 -1.6195261 0.83291149 1.2631159e-38
-0.8122263 -1.6195264 0.83291143 1.2631159e-38
-0.80747718 -1.6195261 0.83291161 1.2722996e-38
-0.802728 -1.6195256 0.83291185 1.2723354e-38
-0.79797894 -1.6195252 0.83291197 1.2815548e-38
-0.76315594 -1.6195301 0.83290964 1.2354572e-38
-0.75682443 -1.6195308 0.83290923 1.2262376e-38
-0.75207567 -1.6195312 0.83290911 1.2262376e-38
-0.74732685 -1.6195314 0.83290899 1.217018e-38
-0.74257803 -1.6195316 0.83290881 1.2077985e-38
-0.73782915 -1.6195318 0.83290881 1.1985789e-38
-0.73308009 -1.6195314 0.83290893 1.1893594e-38
-0.72833097 -1.619531 0.83290917 1.1708842e-38
-0.722 -1.6195329 0.83290815 1.1524451e-38
-0.71725225 -1.6195357 0.83290684 1.1432255e-38
-0.71250451 -1.6195382 0.83290553 1.134006e-38
-0.70775676 -1.6195407 0.83290428 1.1247864e-38
-0.70300853 -1.6195422 0.8329035 1.1063474e-38
-0.69667661 -1.6195424 0.8329035 1.1063474e-38
-0.69192708 -1.619541 0.8329041 1.1247864e-38
-0.68717706 -1.6195388 0.83290529 1.134006e-38
-0.68242711 -1.6195365 0.83290637 1.1432255e-38
-0.67767715 -1.6195341 0.83290756 1.1524451e-38
-0.67292744 -1.6195325 0.83290845 1.1709202e-38
-0.6681788 -1.6195332 0.83290803 1.1801398e-38
-0.66184723 -1.619534 0.83290756 1.1985789e-38
-0.65709835 -1.6195341 0.83290756 1.2077985e-38
-0.65234941 -1.6195341 0.83290756 1.217018e-38
-0.64760047 -1.6195341 0.83290756 1.2262376e-38
-0.64285159 -1.6195343 0.83290756 1.2262376e-38
-0.63810301 -1.6195352 0.83290708 1.2354572e-38
-0.63335466 -1.6195366 0.83290637 1.2354573e-38
-0.62702346 -1.6195383 0.83290553 1.2354573e-38
-0.62227505 -1.6195396 0.83290488 1.2538963e-38
-0.61752665 -1.6195409 0.83290422 1.2631159e-38
-0.61277819 -1.6195424 0.8329035 1.2907385e-38
-0.60802972 -1.6195436 0.83290285 1.2907744e-38
-0.60169852 -1.6195455 0.83290195 1.281519e-38
-0.59695017 -1.6195469 0.83290112 1.2723354e-38
-0.59220183 -1.6195488 0.83290029 1.2722996e-38
-0.58745331 -1.6195498 0.83289975 1.2631159e-38
-0.58270431 -1.6195496 0.83289981 1.2722996e-38
-0.57795531 -1.6195496 0.83289981 1.2907387e-38
-0.57320631 -1.6195495 0.83289981 1.2999582e-38
-0.56834269 -1.6184864 0.83166391 1.0787247e-38
-0.82664216 -1.6124909 0.83291256 1.2999582e-38
-0.82191002 -1.6124911 0.83291245 1.3183974e-38
-0.81717765 -1.6124908 0.83291262 1.2907387e-38
-0.81244552 -1.612491 0.8329125 1.281555e-38
-0.80771369 -1.6124916 0.83291215 1.281555e-38
-0.80298185 -1.6124923 0.83291185 1.2815548e-38
-0.79824996 -1.612493 0.83291149 1.2815548e-38
-0.79194081 -1.6124938 0.83291107 1.299958e-38
-0.78720897 -1.6124946 0.83291066 1.299958e-38
-0.75250804 -1.6124985 0.83290869 1.2354572e-38
-0.74777591 -1.6124988 0.83290857 1.2354572e-38
-0.7430436 -1.6124986 0.83290863 1.2354213e-38
-0.73831117 -1.6124982 0.83290887 1.2262376e-38
-0.73200125 -1.6124976 0.83290923 1.217018e-38
-0.72726911 -1.6124978 0.83290911 1.217018e-38
-0.72253811 -1.6125003 0.8329078 1.2077985e-38
-0.71780711 -1.6125029 0.83290654 1.1985791e-38
-0.71307606 -1.6125054 0.83290523 1.1709565e-38
-0.70676738 -1.6125076 0.8329041 1.0603578e-38
-0.70203555 -1.6125084 0.83290374 1.01426e-38
-0.6973033 -1.6125085 0.83290368 1.01426e-38
-0.69257075 -1.6125078 0.83290398 1.0696134e-38
-0.68783796 -1.6125069 0.83290452 1.161737e-38
-0.68310469 -1.6125045 0.83290571 1.1985791e-38
-0.67837143 -1.6125023 0.83290684 1.2077985e-38
-0.67206061 -1.6124995 0.83290827 1.217018e-38
-0.66732842 -1.6124996 0.83290815 1.217018e-38
-0.66259646 -1.6125003 0.8329078 1.217018e-38
-0.65786457 -1.612501 0.83290744 1.2354213e-38
-0.65313256 -1.6125016 0.8329072 1.2354572e-38
-0.64682293 -1.6125016 0.83290714 1.2354572e-38
-0.64209074 -1.6125017 0.83290708 1.2446767e-38
-0.63735855 -1.6125017 0.83290708 1.2446767e-38
-0.63262671 -1.6125028 0.8329066 1.2446769e-38
-0.627895 -1.612504 0.83290589 1.2538604e-38
-0.62158608 -1.6125058 0.83290505 1.2631159e-38
-0.61685437 -1.6125071 0.83290434 1.281519e-38
-0.6121226 -1.6125083 0.83290374 1.299958e-38
-0.60739088 -1.6125098 0.83290297 1.3091775e-38
-0.60265917 -1.6125112 0.83290237 1.2815548e-38
-0.59792739 -1.6125124 0.83290172 1.2815548e-38
-0.59319568 -1.6125137 0.83290106 1.281555e-38
-0.58688664 -1.6125154 0.83290017 1.281555e-38
-0.58215493 -1.612517 0.83289939 1.2999581e-38
-0.57742298 -1.6125178 0.83289897 1.3091778e-38
-0.57136726 -1.6131887 0.83256102 1.0786887e-38
-0.82613409 -1.6071495 0.83208138 4.3331946e-39
-0.82209557 -1.6055069 0.8329125 1.3091778e-38
-0.81738031 -1.6055076 0.83291227 1.3091778e-38
-0.81266505 -1.6055082 0.83291191 1.2999941e-38
-0.80794978 -1.6055088 0.83291149 1.2907385e-38
-0.8016628 -1.6055098 0.83291113 1.2907385e-38
-0.79694748 -1.6055104 0.83291078 1.2907744e-38
-0.79223216 -1.605511 0.83291042 1.2907744e-38
-0.78751689 -1.6055115 0.83291012 1.281555e-38
-0.78280163 -1.6055124 0.8329097 1.2722996e-38
-0.77808636 -1.6055131 0.83290946 1.2723354e-38
-0.77337104 -1.6055137 0.83290911 1.2631159e-38
-0.7482214 -1.6055145 0.83290863 1.2538604e-38
-0.74193358 -1.605514 0.83290887 1.2446767e-38
-0.73721772 -1.6055136 0.83290917 1.2354572e-38
-0.73250192 -1.6055133 0.83290935 1.2354572e-38
-0.72778696 -1.6055145 0.83290863 1.2446767e-38
-0.72307253 -1.605517 0.83290738 1.2170542e-38
-0.71678662 -1.6055205 0.83290565 1.014332e-38
-0.71207166 -1.605522 0.83290488 7.7469552e-39
-0.70735639 -1.6055229 0.83290446 6.6402476e-39
-0.70264113 -1.6055238 0.83290398 5.9948781e-39
-0.69792557 -1.6055241 0.83290386 5.9948767e-39
-0.69163764 -1.6055232 0.83290428 6.8246388e-39
-0.68692172 -1.6055226 0.83290458 8.1157378e-39
-0.68220532 -1.6055211 0.83290541 1.0696132e-38
-0.67748868 -1.6055187 0.83290654 1.2170542e-38
-0.67277205 -1.6055166 0.83290768 1.2354572e-38
-0.66805571 -1.6055151 0.83290845 1.2446409e-38
-0.66334039 -1.6055157 0.83290803 1.2354572e-38
-0.65705323 -1.6055167 0.83290756 1.2446767e-38
-0.65233791 -1.6055174 0.8329072 1.2538604e-38
-0.64762259 -1.6055181 0.83290684 1.2538604e-38
-0.64290708 -1.6055185 0.83290666 1.2538604e-38
-0.6381914 -1.6055185 0.83290666 1.2538963e-38
-0.63190395 -1.6055186 0.8329066 1.2538964e-38
-0.62718874 -1.6055197 0.83290607 1.2631159e-38
-0.6224736 -1.605521 0.83290541 1.2723354e-38
-0.61775851 -1.6055223 0.8329047 1.2722996e-38
-0.61304337 -1.6055236 0.8329041 1.281519e-38
-0.60675651 -1.6055253 0.83290327 1.2907744e-38
-0.6020413 -1.6055266 0.83290261 1.2907744e-38
-0.59732616 -1.6055279 0.8329019 1.2907385e-38
-0.59261101 -1.6055292 0.83290124 1.2907744e-38
-0.58789587 -1.6055305 0.83290058 1.2999581e-38
-0.58160895 -1.6055322 0.83289969 1.3091778e-38
-0.57689375 -1.6055336 0.83289903 1.2999582e-38
-0.57319492 -1.6081996 0.83155 8.4823567e-39
0.36032945 -1.6072413 0.83203495 1.4737344e-39
-0.82104003 -1.6020565 0.83114135 4.425749e-39
-0.57803297 -1.6029094 0.83070779 8.4819965e-39
0.18994662 -1.6032525 0.83405328 0
0.36222661 -1.6000371 0.83216774 1.7506786e-39
-0.81599247 -1.5977802 0.83155859 8.6667479e-39
-0.81288302 -1.598574 0.83291125 1.3092137e-38
-0.80818427 -1.5985749 0.83291095 1.3092135e-38
-0.80191916 -1.5985756 0.83291048 1.3183611e-38
-0.79722035 -1.5985763 0.83291012 1.3091775e-38
-0.79252148 -1.598577 0.83290988 1.2907746e-38
-0.78782266 -1.5985776 0.83290952 1.2907385e-38
-0.78312385 -1.5985783 0.83290917 1.2815191e-38
-0.77685881 -1.5985792 0.83290875 1.281555e-38
-0.77215987 -1.5985798 0.83290845 1.281555e-38
-0.76746082 -1.5985799 0.83290833 1.2723354e-38
-0.7517966 -1.5985792 0.83290869 1.2538963e-38
-0.74709725 -1.5985789 0.83290887 1.2631159e-38
-0.74239784 -1.5985785 0.83290911 1.2722994e-38
-0.7376985 -1.5985781 0.83290929 1.2631159e-38
-0.73299932 -1.598578 0.83290929 1.2631159e-38
-0.72673512 -1.5985808 0.83290786 1.2262736e-38
-0.72203714 -1.5985833 0.8329066 1.0880885e-38
-0.71733886 -1.5985854 0.83290565 8.1157378e-39
-0.71264011 -1.5985861 0.83290517 5.1658377e-39
-0.70794129 -1.598587 0.83290476 5.3495087e-39
-0.70167625 -1.5985882 0.8329041 5.625374e-39
-0.69697708 -1.5985881 0.83290416 5.625374e-39
-0.69227761 -1.5985875 0.83290446 5.3495087e-39
-0.68757814 -1.5985869 0.83290476 5.1658377e-39
-0.68287873 -1.5985864 0.83290505 7.839511e-39
-0.67661202 -1.5985842 0.83290625 1.1249306e-38
-0.67191184 -1.5985818 0.83290732 1.2631159e-38
-0.66721189 -1.5985801 0.83290827 1.2631159e-38
-0.66251278 -1.5985802 0.83290815 1.2631159e-38
-0.65781391 -1.598581 0.8329078 1.2722994e-38
-0.65311503 -1.5985817 0.83290744 1.2631159e-38
-0.64841622 -1.5985823 0.83290708 1.2538963e-38
-0.64215106 -1.5985832 0.8329066 1.2538964e-38
-0.63745213 -1.5985839 0.83290625 1.2631159e-38
-0.63275295 -1.5985839 0.83290625 1.2723354e-38
-0.62805378 -1.5985841 0.83290619 1.281555e-38
-0.62335491 -1.5985849 0.83290583 1.281555e-38
-0.61709011 -1.5985866 0.83290493 1.2815191e-38
-0.61239141 -1.5985879 0.83290428 1.2907385e-38
-0.60769278 -1.5985892 0.83290362 1.2907744e-38
-0.60299408 -1.5985904 0.83290297 1.3091775e-38
-0.59829539 -1.5985917 0.83290231 1.3183611e-38
-0.59203047 -1.5985935 0.83290148 1.3092135e-38
-0.58733177 -1.5985948 0.83290082 1.3092137e-38
-0.58324176 -1.5983182 0.83187062 9.7730955e-39
-0.80841702 -1.5916891 0.83291036 1.3092137e-38
-0.80217373 -1.5916898 0.83290988 1.3276166e-38
-0.79749131 -1.5916905 0.83290958 1.3275808e-38
-0.79280877 -1.5916911 0.83290929 1.299994e-38
-0.78656554 -1.5916921 0.83290875 1.2999581e-38
-0.78188306 -1.5916927 0.83290839 1.3091417e-38
-0.77720052 -1.5916932 0.83290827 1.3091775e-38
-0.77251786 -1.5916934 0.83290809 1.3091775e-38
-0.76783496 -1.5916934 0.83290815 1.299958e-38
-0.75222492 -1.591692 0.83290887 1.2722994e-38
-0.74754184 -1.5916916 0.83290905 1.2907025e-38
-0.74285877 -1.591691 0.83290935 1.2999221e-38
-0.73661482 -1.5916905 0.83290958 1.2907385e-38
-0.73193276 -1.5916921 0.83290875 1.2907744e-38
-0.72725117 -1.5916946 0.8329075 1.2262376e-38
-0.72256947 -1.591697 0.83290631 9.9592902e-39
-0.71788698 -1.5916977 0.83290589 7.5625654e-39
-0.71164382 -1.5916989 0.83290529 6.547689e-39
-0.70696139 -1.5916997 0.83290488 7.5607605e-39
-0.70227897 -1.5917006 0.83290446 8.1135728e-39
-0.69759613 -1.5917007 0.8329044 8.1135742e-39
-0.69291306 -1.5917001 0.83290464 7.468925e-39
-0.68666887 -1.5916994 0.83290505 6.5480505e-39
-0.6819858 -1.5916988 0.83290535 7.5622053e-39
-0.67730266 -1.5916982 0.83290571 9.8670932e-39
-0.67261899 -1.5916961 0.83290666 1.2354932e-38
-0.66793519 -1.591694 0.8329078 1.2907385e-38
-0.66169095 -1.5916929 0.83290827 1.2907385e-38
-0.65700847 -1.5916936 0.83290797 1.2999221e-38
-0.65232599 -1.5916944 0.83290756 1.281519e-38
-0.64764345 -1.5916951 0.8329072 1.2722994e-38
-0.64296091 -1.5916958 0.8329069 1.2722994e-38
-0.63671756 -1.5916967 0.83290637 1.2907384e-38
-0.63203508 -1.5916976 0.83290601 1.3091775e-38
-0.62735236 -1.5916978 0.83290583 1.3091775e-38
-0.62266952 -1.5916978 0.83290583 1.3091775e-38
-0.6179871 -1.5916989 0.83290535 1.3091417e-38
-0.61174405 -1.5917006 0.83290446 1.2999581e-38
-0.60706168 -1.5917017 0.83290386 1.3091777e-38
-0.60237944 -1.5917029 0.83290315 1.3183971e-38
-0.59769708 -1.5917042 0.83290255 1.3276168e-38
-0.59301472 -1.5917056 0.8329019 1.3183972e-38
-0.58746827 -1.5934745 0.83199877 7.9291829e-39
0.22941689 -1.5902976 0.83362073 0
0.36425525 -1.5942898 0.83333588 1.5666475e-39
0.46444476 -1.5941333 0.83166242 3.0407308e-39
-0.80415696 -1.5851767 0.83274269 4.1491635e-39
-0.59569979 -1.5852435 0.83270848 7.3760105e-39
-0.59236312 -1.5885799 0.83099747 7.5604018e-39
0.22900189 -1.5857234 0.83246231 0
0.36748049 -1.5883533 0.83228141 1.5659286e-39
-0.80087119 -1.584852 0.83290917 1.2999943e-38
-0.79846525 -1.5825217 0.83236039 8.6667479e-39
-0.79309416 -1.5848531 0.83290863 1.3091777e-38
-0.78687251 -1.5848539 0.83290821 1.3183612e-38
-0.78220618 -1.5848545 0.83290792 1.3275806e-38
-0.77753973 -1.5848546 0.83290786 1.3183971e-38
-0.77287292 -1.5848542 0.83290803 1.3183611e-38
-0.76820612 -1.5848538 0.83290827 1.3091417e-38
-0.75265014 -1.5848523 0.83290899 1.2723354e-38
-0.7479834 -1.584852 0.83290923 1.2999221e-38
-0.74331665 -1.5848515 0.83290946 1.3091775e-38
-0.73709452 -1.5848515 0.83290946 1.3091417e-38
-0.73242903 -1.5848536 0.83290839 1.299958e-38
-0.72776353 -1.5848558 0.8329072 1.2538962e-38
-0.7230975 -1.5848571 0.8329066 1.0880525e-38
-0.71843135 -1.5848579 0.83290619 9.0369738e-39
-0.71220976 -1.5848591 0.83290559 8.4823567e-39
-0.70754361 -1.5848598 0.83290517 9.1273646e-39
-0.7028774 -1.5848608 0.8329047 9.5879826e-39
-0.69665539 -1.5848608 0.83290464 9.4961471e-39
-0.69198847 -1.5848603 0.83290493 9.0351703e-39
-0.68732166 -1.5848597 0.83290529 8.4823567e-39
-0.6826548 -1.5848591 0.83290553 8.852221e-39
-0.67798793 -1.5848587 0.83290583 1.0327351e-38
-0.67176533 -1.5848575 0.83290637 1.2631157e-38
-0.66709781 -1.5848554 0.83290744 1.299958e-38
-0.66243047 -1.5848536 0.83290833 1.3091417e-38
-0.65776402 -1.5848539 0.83290821 1.3183611e-38
-0.65309775 -1.5848546 0.8329078 1.2999221e-38
-0.6468761 -1.5848556 0.83290732 1.2723354e-38
-0.64220977 -1.5848564 0.83290702 1.2723354e-38
-0.6375435 -1.584857 0.8329066 1.281519e-38
-0.63287723 -1.5848578 0.83290625 1.3091417e-38
-0.6282109 -1.5848584 0.83290589 1.3091775e-38
-0.62198919 -1.5848594 0.83290547 1.3183971e-38
-0.61732268 -1.5848595 0.83290541 1.3275806e-38
-0.61265647 -1.5848603 0.83290488 1.3091777e-38
-0.60799038 -1.5848616 0.83290422 1.3091777e-38
-0.60240132 -1.5833713 0.8325057 1.1156029e-38
-0.59850156 -1.5837314 0.83173716 1.0141878e-38
0.19120936 -1.5802627 0.83177471 0
0.22858855 -1.5811675 0.83130866 0
0.37161496 -1.5824512 0.832394 1.7510373e-39
0.45907694 -1.5847652 0.83295375 3.410221e-39
-0.79365367 -1.5771174 0.83223373 1.0141878e-38
-0.78717732 -1.578063 0.83290768 1.3183972e-38
-0.78252667 -1.5780628 0.83290786 1.3183971e-38
-0.77787602 -1.5780624 0.83290803 1.3183611e-38
-0.77167511 -1.5780618 0.83290827 1.2999581e-38
-0.76702452 -1.5780615 0.83290851 1.281555e-38
-0.7530725 -1.57806 0.83290923 1.2723354e-38
-0.74687171 -1.5780594 0.83290946 1.299958e-38
-0.74222106 -1.5780591 0.83290964 1.3091775e-38
-0.737571 -1.5780599 0.83290923 1.299958e-38
-0.73292178 -1.5780624 0.83290803 1.2999938e-38
-0.72827196 -1.5780637 0.83290732 1.299958e-38
-0.72207195 -1.5780649 0.83290672 1.2446766e-38
-0.71742189 -1.5780656 0.83290637 1.1063833e-38
-0.71277183 -1.5780666 0.83290589 9.6805383e-39
-0.70657182 -1.5780675 0.83290529 9.8649296e-39
-0.7019217 -1.5780685 0.83290488 1.0141516e-38
-0.69727129 -1.5780685 0.83290482 1.0049321e-38
-0.69262058 -1.5780679 0.83290517 9.8649296e-39
-0.68796986 -1.5780674 0.83290541 9.4965072e-39
-0.68176889 -1.5780666 0.83290577 1.1248584e-38
-0.67711812 -1.578066 0.83290613 1.2538963e-38
-0.67246747 -1.5780655 0.83290642 1.2908103e-38
-0.6678167 -1.5780648 0.83290672 1.2999938e-38
-0.66316527 -1.5780628 0.83290786 1.299958e-38
-0.6569643 -1.5780618 0.83290827 1.3091775e-38
-0.65231419 -1.5780627 0.83290797 1.299958e-38
-0.64766407 -1.5780632 0.83290762 1.2723354e-38
-0.64301389 -1.578064 0.8329072 1.2722996e-38
-0.63836372 -1.5780646 0.83290684 1.26308e-38
-0.63216352 -1.5780655 0.83290642 1.281555e-38
-0.62751335 -1.5780661 0.83290607 1.3091775e-38
-0.62286317 -1.5780668 0.83290565 1.3183611e-38
-0.61666298 -1.5780678 0.83290523 1.3183971e-38
-0.61201274 -1.5780683 0.83290499 1.3276168e-38
-0.60670501 -1.577231 0.83217484 1.0971639e-38
-0.60275924 -1.5781844 0.83284521 7.0994236e-39
0.2280976 -1.5760429 0.83046305 6.4464354e-40
0.37417728 -1.5793383 0.83225077 9.2128227e-40
0.37682176 -1.5766219 0.83190686 1.0134765e-39
0.45229837 -1.5771151 0.8322342 1.4748358e-39
-0.78705949 -1.5710025 0.83191139 7.4682062e-39
-0.78284466 -1.5713172 0.83290797 1.2907748e-38
-0.77821004 -1.5713168 0.83290821 1.3183974e-38
-0.77203047 -1.5713162 0.83290851 1.3183971e-38
-0.76739591 -1.5713159 0.83290875 1.2999581e-38
-0.7519471 -1.5713146 0.83290941 1.3091775e-38
-0.74731249 -1.5713141 0.8329097 1.3183611e-38
-0.74267787 -1.5713137 0.83290988 1.3275806e-38
-0.73804438 -1.5713155 0.83290887 1.3183611e-38
-0.73186612 -1.5713174 0.83290792 1.299958e-38
-0.7272321 -1.5713181 0.83290756 1.2907744e-38
-0.72259808 -1.5713191 0.83290708 1.299994e-38
-0.71796405 -1.5713199 0.8329066 1.281519e-38
-0.71333003 -1.5713209 0.83290619 1.2262016e-38
-0.70715135 -1.571322 0.83290559 1.115567e-38
-0.70251733 -1.5713228 0.83290511 1.069469e-38
-0.69788301 -1.571323 0.83290505 1.0602496e-38
-0.69170338 -1.5713222 0.83290541 1.1340061e-38
-0.6870687 -1.5713217 0.83290571 1.2354212e-38
-0.68243396 -1.5713212 0.83290601 1.2722994e-38
-0.67779928 -1.5713207 0.83290631 1.299994e-38
-0.67316461 -1.5713201 0.83290654 1.2907744e-38
-0.66698503 -1.5713193 0.83290696 1.299958e-38
-0.66235006 -1.571318 0.83290756 1.3183611e-38
-0.65771496 -1.5713165 0.83290839 1.3275806e-38
-0.65308064 -1.5713168 0.83290821 1.3183971e-38
-0.64844656 -1.5713176 0.8329078 1.3091775e-38
-0.6422677 -1.5713184 0.83290744 1.2907385e-38
-0.63763362 -1.5713191 0.83290702 1.2907385e-38
-0.63299948 -1.5713199 0.8329066 1.2999581e-38
-0.62682062 -1.5713208 0.83290625 1.3276166e-38
-0.62218648 -1.5713216 0.83290583 1.3276168e-38
-0.61755234 -1.5713222 0.83290547 1.2907747e-38
-0.61150777 -1.5716465 0.83273768 9.6809013e-39
-0.60758173 -1.5733622 0.83185005 6.9150324e-39
0.37942216 -1.5744958 0.83300447 2.1201772e-39
0.38348007 -1.5713007 0.8329165 1.3822576e-39
0.38511181 -1.5701796 0.8300181 8.2944538e-40
0.44337624 -1.5700324 0.8335728 1.3815556e-39
0.44721216 -1.5727143 0.83218521 1.2900816e-39
-0.78181088 -1.5678838 0.83121109 4.8867285e-39
-0.77759105 -1.5657339 0.83232838 4.8867285e-39
-0.62204832 -1.5658805 0.83225214 6.4540542e-39
-0.61697328 -1.5684664 0.8309083 6.6384455e-39
0.38769323 -1.5688064 0.83246946 8.2944538e-40
0.39138886 -1.5668408 0.8329106 8.2944678e-40
0.43317825 -1.5650997 0.83265787 1.0134835e-39
0.43818301 -1.5672406 0.83328223 1.0134877e-39
0.4402312 -1.5683417 0.83097309 1.1975216e-39
-0.77166891 -1.5637407 0.83220857 1.0050043e-38
-0.76776475 -1.5646167 0.83290887 1.2999943e-38
-0.75236899 -1.5646154 0.83290964 1.3091777e-38
-0.74775028 -1.564615 0.83290982 1.2999581e-38
-0.74159271 -1.5646158 0.83290935 1.2907746e-38
-0.73697495 -1.5646173 0.83290863 1.2907385e-38
-0.73235679 -1.5646181 0.83290821 1.2815548e-38
-0.72773874 -1.5646189 0.83290774 1.281519e-38
-0.72312063 -1.5646198 0.83290732 1.2907385e-38
-0.71696317 -1.5646207 0.83290672 1.2999221e-38
-0.71234506 -1.5646218 0.83290631 1.2999221e-38
-0.70772696 -1.5646226 0.83290589 1.2907384e-38
-0.70156944 -1.5646237 0.83290529 1.2722994e-38
-0.69695085 -1.5646236 0.83290529 1.2815188e-38
-0.69233209 -1.5646231 0.83290565 1.2907384e-38
-0.68771327 -1.5646225 0.83290595 1.2999221e-38
-0.6830945 -1.5646219 0.83290619 1.2999221e-38
-0.67693615 -1.5646211 0.8329066 1.2907385e-38
-0.67231739 -1.5646206 0.83290684 1.281519e-38
-0.66769856 -1.56462 0.8329072 1.2815548e-38
-0.66154021 -1.5646193 0.83290756 1.2907385e-38
-0.65692097 -1.5646176 0.83290839 1.2907746e-38
-0.6523025 -1.5646179 0.83290827 1.2999581e-38
-0.64768434 -1.5646185 0.83290797 1.3091777e-38
-0.64306611 -1.5646191 0.83290762 1.3091777e-38
-0.63690847 -1.56462 0.83290714 1.3092137e-38
-0.63185036 -1.5628655 0.83208668 9.5887042e-39
-0.62807757 -1.5638794 0.83213621 1.0602856e-38
0.39760727 -1.5644922 0.83297366 6.4577438e-40
0.40298524 -1.5629425 0.83262253 2.3964011e-39
0.40705395 -1.5623188 0.8317914 7.5589641e-39
0.41249511 -1.561794 0.83264273 8.6656647e-39
0.41712534 -1.5618627 0.83260691 8.6656661e-39
0.42186362 -1.5623382 0.83235919 6.2685924e-39
0.42773184 -1.563439 0.83236438 1.1982279e-39
-0.76604855 -1.5598526 0.83192301 4.8867285e-39
-0.7578392 -1.5573503 0.83207577 1.0050043e-38
-0.75278801 -1.5579621 0.83290976 1.2907747e-38
-0.74818504 -1.5579616 0.83291 1.2999943e-38
-0.74204874 -1.5579629 0.83290935 1.3092137e-38
-0.73744649 -1.5579636 0.83290893 1.3183972e-38
-0.73284423 -1.5579646 0.83290839 1.3091775e-38
-0.72670782 -1.5579656 0.83290792 1.2999581e-38
-0.7221055 -1.5579666 0.83290744 1.2907744e-38
-0.71750319 -1.5579674 0.83290696 1.2907385e-38
-0.71290094 -1.5579683 0.8329066 1.299958e-38
-0.70829856 -1.5579691 0.83290613 1.3091417e-38
-0.70216215 -1.55797 0.83290553 1.3091775e-38
-0.69755948 -1.5579703 0.83290547 1.3091775e-38
-0.69295645 -1.5579696 0.83290577 1.3091775e-38
-0.6868192 -1.557969 0.83290619 1.299958e-38
-0.68221623 -1.5579685 0.83290648 1.299958e-38
-0.67761326 -1.5579679 0.83290672 1.2907385e-38
-0.67301023 -1.5579673 0.83290702 1.2999581e-38
-0.66840726 -1.5579667 0.83290732 1.299994e-38
-0.66226995 -1.557966 0.83290774 1.3183972e-38
-0.65766704 -1.5579655 0.83290803 1.3092137e-38
-0.65306395 -1.5579646 0.83290839 1.3092137e-38
-0.64692724 -1.5579653 0.83290815 1.2907747e-38
-0.64215457 -1.5568442 0.83176374 9.2199231e-39
-0.63784897 -1.5582566 0.83275604 9.3121187e-39
-0.63392812 -1.5598273 0.83193612 6.0852717e-39
0.19206434 -1.555876 0.83399856 0
-0.75249732 -1.5529476 0.83207452 4.8867285e-39
-0.74708802 -1.5513539 0.83291006 1.2539326e-38
-0.74306345 -1.5509686 0.8319611 1.0050043e-38
-0.7379148 -1.5513556 0.83290917 1.2723716e-38
-0.73332822 -1.5513563 0.83290875 1.2815551e-38
-0.72721279 -1.5513575 0.83290815 1.281591e-38
-0.72262615 -1.5513582 0.83290774 1.2723716e-38
-0.71803957 -1.5513592 0.83290726 1.2815551e-38
-0.71192408 -1.5513601 0.83290672 1.2908106e-38
-0.70733744 -1.5513612 0.83290625 1.2908106e-38
-0.7027508 -1.551362 0.83290589 1.2908106e-38
-0.69663483 -1.551362 0.83290577 1.2908106e-38
-0.69204754 -1.5513616 0.83290607 1.2908106e-38
-0.68746024 -1.551361 0.83290637 1.2908106e-38
-0.68287295 -1.5513604 0.83290666 1.281591e-38
-0.67828566 -1.5513598 0.83290696 1.2723716e-38
-0.67216933 -1.5513591 0.83290732 1.281591e-38
-0.66758204 -1.5513586 0.83290756 1.281591e-38
-0.66299474 -1.551358 0.83290792 1.2723716e-38
-0.65642053 -1.5509833 0.83195335 1.014224e-38
-0.65229112 -1.5513567 0.83290863 1.2539326e-38
-0.64823103 -1.5525396 0.83228856 5.5320979e-39
-0.64448637 -1.5544475 0.83128822 5.7164892e-39
-0.74086082 -1.5496693 0.83034146 4.8867285e-39
-0.73753649 -1.5491428 0.83061874 4.8870887e-39
-0.73255473 -1.5483538 0.83103418 4.8867285e-39
-0.72757757 -1.5475655 0.83144927 4.794893e-39
-0.72260624 -1.5467781 0.83186388 4.794893e-39
-0.71763951 -1.5459914 0.83227807 4.794893e-39
-0.71433145 -1.5454674 0.83255398 4.7030575e-39
-0.68679982 -1.545276 0.83265477 4.8874488e-39
-0.68254435 -1.5459504 0.83229965 4.8874488e-39
-0.67686456 -1.5468504 0.83182573 5.0714799e-39
-0.67260045 -1.5475261 0.83146995 5.1636755e-39
-0.6683321 -1.5482025 0.83111382 5.1636755e-39
-0.66263521 -1.5491052 0.83063847 5.2558712e-39
-0.65835828 -1.5497829 0.83028167 5.3480668e-39
-0.71102577 -1.5449439 0.83282965 4.7030575e-39
-0.70790654 -1.5447979 0.83290654 1.2263819e-38
-0.70285326 -1.5443646 0.83198661 9.5901462e-39
-0.69775462 -1.544325 0.83200759 9.5901462e-39
-0.69266868 -1.5447984 0.83290625 1.2263819e-38
-0.68963456 -1.5448269 0.83289123 4.7952532e-39
0.19337498 -1.5362606 0.8339743 0
-0.067382835 -1.5332112 0.83215976 1.1779175e-40
0.099236749 -1.5327048 0.83242875 8.6689368e-40
0.095750809 -1.5206863 0.83199602 8.6617341e-40
0.22546749 -1.5241327 0.83356905 0
