# .PCD v0.7 - Point Cloud Data file format
VERSION 0.7
FIELDS x y z rgb
SIZE 4 4 4 4
TYPE F F F F
COUNT 1 1 1 1
WIDTH 1016
HEIGHT 1
VIEWPOINT 0 0 0 1 0 0 0
POINTS 1016
DATA ascii
-0.56835514 -1.8141832 0.77469891 8.1070427e-39
-0.56306839 -1.8141831 0.77469891 8.1070427e-39
-0.55778158 -1.8141831 0.77469891 8.1070441e-39
-0.55249482 -1.8141831 0.77469891 8.1074042e-39
-0.54720807 -1.8141831 0.77469891 8.1996027e-39
-0.54192132 -1.8141831 0.77469891 8.1999628e-39
-0.53663456 -1.8141831 0.77469891 8.1996041e-39
-0.53311002 -1.8141831 0.77469891 8.1077686e-39
-0.52782327 -1.8141831 0.77469891 8.0152128e-39
-0.52253652 -1.8141831 0.77469891 8.01521e-39
-0.5172497 -1.814183 0.77469897 8.01521e-39
-0.51196295 -1.814183 0.77469897 8.1996027e-39
-0.50843847 -1.814183 0.77469897 8.1999628e-39
-0.50315166 -1.814183 0.77469897 8.2917983e-39
-0.4978649 -1.814183 0.77469897 8.1999628e-39
-0.49257815 -1.814183 0.77469897 8.1077686e-39
-0.4872914 -1.814183 0.77469897 8.1074084e-39
-0.48200464 -1.8141829 0.77469897 8.0155715e-39
-0.47671783 -1.8141828 0.77469903 8.1077672e-39
-0.47319335 -1.8141828 0.77469903 8.1996041e-39
-0.46790659 -1.8141828 0.77469903 8.1999642e-39
-0.46261984 -1.8141828 0.77469903 8.2917983e-39
-0.45733306 -1.8141828 0.77469903 8.2914368e-39
-0.45204628 -1.8141828 0.77469903 8.2914354e-39
-0.44852179 -1.8141828 0.77469903 8.1992397e-39
-0.44323504 -1.8141828 0.77469903 8.1992383e-39
-0.43794829 -1.8141828 0.77469903 8.1992383e-39
-0.4326615 -1.8141828 0.77469903 8.1074042e-39
-0.42737472 -1.8141826 0.77469909 8.1074042e-39
-0.42208797 -1.8141826 0.77469909 8.0152086e-39
-0.41680121 -1.8141826 0.77469909 8.0148499e-39
-0.41327667 -1.8141826 0.77469909 7.9230144e-39
-0.40798992 -1.8141826 0.77469909 7.9230144e-39
-0.40270317 -1.8141826 0.77469909 8.1070455e-39
-0.39741641 -1.8141826 0.77469909 8.1074056e-39
-0.3921296 -1.8141825 0.77469915 8.2914382e-39
-0.38684285 -1.8141825 0.77469915 8.1996013e-39
-0.38155609 -1.8141825 0.77469915 8.1074056e-39
-0.37803161 -1.8141825 0.77469915 8.01521e-39
-0.37274483 -1.8141825 0.77469915 7.9230144e-39
-0.36745805 -1.8141825 0.77469915 8.0148499e-39
-0.36217132 -1.8141825 0.77469915 8.0148513e-39
-0.35688454 -1.8141825 0.77469915 8.0148513e-39
-0.35336006 -1.8141825 0.77469915 8.0148513e-39
-0.34807327 -1.8141825 0.77469915 8.0148485e-39
-0.34278649 -1.8141825 0.77469915 8.0148485e-39
-0.33749974 -1.8141824 0.77469921 8.1063224e-39
-0.33221298 -1.8141824 0.77469921 8.1063224e-39
-0.3269262 -1.8141824 0.77469921 8.1063224e-39
-0.32163948 -1.8141824 0.77469921 8.0144869e-39
-0.31811494 -1.8141824 0.77469921 8.0148471e-39
-0.31282818 -1.8141824 0.77469921 8.0148485e-39
-0.30754143 -1.8141824 0.77469921 8.1070455e-39
-0.30225465 -1.8141824 0.77469927 8.1074056e-39
-0.29696786 -1.8141824 0.77469927 8.107407e-39
-0.29344338 -1.8141824 0.77469927 8.1077658e-39
-0.2881566 -1.8141824 0.77469927 8.1992425e-39
-0.28286988 -1.8141824 0.77469927 8.1992425e-39
-0.27934533 -1.8141824 0.77469927 8.1992425e-39
-0.1471763 -1.814182 0.77469939 7.9233759e-39
-0.14188954 -1.814182 0.77469939 7.9233745e-39
-0.13836505 -1.814182 0.77469939 7.9233745e-39
-0.13307828 -1.8141819 0.77469945 7.9230144e-39
-0.12779151 -1.8141819 0.77469945 7.8308188e-39
-0.12250475 -1.8141819 0.77469945 7.8311789e-39
-0.11721799 -1.8141819 0.77469945 7.9233773e-39
-0.11193123 -1.8141819 0.77469945 8.0155744e-39
-0.10664447 -1.8141819 0.77469945 8.1077714e-39
-0.10311997 -1.8141819 0.77469945 8.1077714e-39
-0.097833201 -1.8141819 0.77469945 8.0155744e-39
-0.092546448 -1.8141819 0.77469945 8.015573e-39
-0.087259695 -1.8141819 0.77469945 7.9233759e-39
0.11716163 -1.8141813 0.77469981 7.9237403e-39
0.12244838 -1.8141813 0.77469981 7.9241018e-39
0.12773514 -1.8141813 0.77469981 7.9237417e-39
0.13302189 -1.8141812 0.77469987 7.8315446e-39
0.1365464 -1.8141812 0.77469987 7.8311831e-39
0.14183316 -1.8141812 0.77469987 7.7386259e-39
0.14711991 -1.8141812 0.77469987 7.7389861e-39
0.15240666 -1.8141812 0.77469987 7.8311831e-39
0.15769343 -1.8141812 0.77469987 8.0159359e-39
0.16298018 -1.8141812 0.77469987 8.0162974e-39
0.16826694 -1.8141811 0.77469993 8.0162988e-39
0.17179143 -1.8141811 0.77469993 8.0162974e-39
0.17707819 -1.8141811 0.77469993 8.0159373e-39
0.18236496 -1.8141811 0.77469993 8.0159373e-39
0.18765169 -1.8141811 0.77469993 8.0159359e-39
0.19293845 -1.814181 0.77469993 7.9237417e-39
0.1982252 -1.814181 0.77469993 7.831546e-39
0.24933051 -1.8141809 0.77469999 7.7397091e-39
0.252855 -1.8141807 0.77470005 7.739349e-39
0.25814176 -1.8141807 0.77470005 7.7397091e-39
0.26342851 -1.8141807 0.77470005 7.7397105e-39
0.26695299 -1.8141807 0.77470005 7.7397091e-39
0.27223977 -1.8141807 0.77470005 7.8311845e-39
0.2775265 -1.8141807 0.77470005 7.8311845e-39
0.28281328 -1.8141807 0.77470005 7.831546e-39
0.2881 -1.8141807 0.77470011 7.9241032e-39
0.29162455 -1.8141807 0.77470011 7.9244647e-39
0.29691127 -1.8141807 0.77470011 7.9244647e-39
0.30219805 -1.8141807 0.77470011 7.9241046e-39
0.30748478 -1.8141807 0.77470011 7.8319076e-39
0.3127715 -1.8141806 0.77470016 7.8315474e-39
0.31805828 -1.8141806 0.77470016 7.831546e-39
0.32334501 -1.8141806 0.77470016 7.831546e-39
0.32686955 -1.8141806 0.77470016 7.8319062e-39
0.3321563 -1.8141806 0.77470016 7.9237417e-39
0.33744305 -1.8141806 0.77470016 7.9237431e-39
0.34272978 -1.8141806 0.77470016 7.9241018e-39
0.34801656 -1.8141805 0.77470022 7.9241032e-39
0.35154104 -1.8141805 0.77470022 7.9241046e-39
0.3568278 -1.8141805 0.77470022 7.8319076e-39
0.36211455 -1.8141805 0.77470022 7.831546e-39
0.3674013 -1.8141805 0.77470022 7.7389889e-39
0.37268806 -1.8141804 0.77470022 7.6467918e-39
0.37797478 -1.8141804 0.77470022 7.7389889e-39
0.38326156 -1.8141804 0.77470022 7.8315446e-39
0.38678604 -1.8141804 0.77470022 7.9233829e-39
0.3920728 -1.8141804 0.77470022 7.9237431e-39
0.39735955 -1.8141804 0.77470022 7.8315474e-39
0.73218685 -1.8141791 0.77470088 8.1074084e-39
0.73747361 -1.8141791 0.77470088 8.0155715e-39
0.7427603 -1.8141791 0.77470088 8.1077672e-39
0.74804711 -1.8141791 0.77470088 8.1996041e-39
0.75333381 -1.8141789 0.77470094 8.1999642e-39
0.75685829 -1.8141789 0.77470094 8.2917983e-39
0.76214504 -1.8141789 0.77470094 8.2914368e-39
0.7674318 -1.8141789 0.77470094 8.2914354e-39
0.77271855 -1.8141789 0.77470094 8.1992383e-39
0.7780053 -1.8141789 0.77470094 8.1992383e-39
0.78152978 -1.8141789 0.77470094 8.1992397e-39
0.78681654 -1.8141789 0.774701 8.1074042e-39
0.79210323 -1.8141789 0.774701 8.1074042e-39
0.79738998 -1.8141789 0.774701 8.0152086e-39
0.80267674 -1.8141789 0.774701 8.0148499e-39
0.80796349 -1.8141789 0.774701 7.9230144e-39
0.81325018 -1.8141788 0.774701 8.0152086e-39
0.81677467 -1.8141788 0.774701 8.1074042e-39
0.82206142 -1.8141788 0.774701 8.1074056e-39
0.82734817 -1.8141788 0.774701 8.2914382e-39
0.83263493 -1.8141788 0.774701 8.1996013e-39
0.83792168 -1.8141788 0.774701 8.1074056e-39
0.84320843 -1.8141787 0.774701 8.0148499e-39
0.84849513 -1.8141787 0.77470106 7.9230144e-39
0.85201961 -1.8141787 0.77470106 8.0148499e-39
0.85730636 -1.8141787 0.77470106 8.0148513e-39
0.86259311 -1.8141787 0.77470106 8.0148513e-39
0.86787987 -1.8141787 0.77470106 8.0148499e-39
0.87316656 -1.8141785 0.77470112 8.0148485e-39
0.8766911 -1.8141785 0.77470112 8.0148485e-39
0.8819778 -1.8141785 0.77470112 8.1063224e-39
0.88726455 -1.8141785 0.77470112 8.1063224e-39
0.8925513 -1.8141785 0.77470112 8.1063224e-39
0.89783806 -1.8141785 0.77470112 8.0144869e-39
0.90312481 -1.8141785 0.77470112 8.0148471e-39
0.9084115 -1.8141783 0.77470118 8.1070441e-39
0.91193604 -1.8141783 0.77470118 8.1070455e-39
-0.56795871 -1.8060677 0.77469891 8.1070413e-39
-0.56269121 -1.8060677 0.77469891 8.1070413e-39
-0.55742371 -1.8060677 0.77469891 8.1070427e-39
-0.55215621 -1.8060677 0.77469891 8.1992397e-39
-0.54688871 -1.8060677 0.77469891 8.1995999e-39
-0.54162127 -1.8060677 0.77469891 8.1996027e-39
-0.53810954 -1.8060676 0.77469897 8.1996013e-39
-0.53284204 -1.8060676 0.77469897 8.1074056e-39
-0.5275746 -1.8060676 0.77469897 8.01521e-39
-0.5223071 -1.8060676 0.77469897 8.0152086e-39
-0.5170396 -1.8060676 0.77469897 8.1074056e-39
-0.5117721 -1.8060676 0.77469897 8.1996013e-39
-0.5065046 -1.8060676 0.77469897 8.2917983e-39
-0.50299299 -1.8060676 0.77469897 8.2917983e-39
-0.49772549 -1.8060676 0.77469897 8.1999628e-39
-0.49245799 -1.8060676 0.77469897 8.1996027e-39
-0.48719049 -1.8060676 0.77469897 8.0152128e-39
-0.48192298 -1.8060676 0.77469897 8.1070469e-39
-0.47841132 -1.8060676 0.77469897 8.1074084e-39
-0.47314385 -1.8060676 0.77469897 8.1996055e-39
-0.46787637 -1.8060676 0.77469897 8.2003257e-39
-0.46260887 -1.8060676 0.77469897 8.1999642e-39
-0.45734137 -1.8060676 0.77469897 8.1999628e-39
-0.45207387 -1.8060675 0.77469897 8.1992411e-39
-0.44680637 -1.8060675 0.77469903 8.1992383e-39
-0.4432947 -1.8060675 0.77469903 8.1988782e-39
-0.43802723 -1.8060675 0.77469903 8.1070441e-39
-0.43275976 -1.8060675 0.77469903 8.1074056e-39
-0.42749226 -1.8060675 0.77469903 8.1074056e-39
-0.42222476 -1.8060675 0.77469903 8.01521e-39
-0.41695729 -1.8060675 0.77469903 8.0148499e-39
-0.41168982 -1.8060675 0.77469903 7.923013e-39
-0.40817815 -1.8060675 0.77469903 8.0148485e-39
-0.40291065 -1.8060675 0.77469909 8.0152086e-39
-0.39764315 -1.8060673 0.77469909 8.1992397e-39
-0.39237565 -1.8060673 0.77469909 8.1992397e-39
-0.38710815 -1.8060673 0.77469909 8.2910752e-39
-0.38184068 -1.8060673 0.77469909 8.1070455e-39
-0.3765732 -1.8060673 0.77469909 8.0152086e-39
-0.37306154 -1.8060673 0.77469909 8.0152086e-39
-0.36779404 -1.8060673 0.77469909 8.01521e-39
-0.36252654 -1.8060672 0.77469915 8.01521e-39
-0.35725904 -1.8060672 0.77469915 8.01521e-39
-0.35199153 -1.8060672 0.77469915 8.0148513e-39
-0.34847993 -1.8060672 0.77469915 8.0148499e-39
-0.34321243 -1.8060672 0.77469915 8.0148485e-39
-0.33794492 -1.8060672 0.77469915 8.1070427e-39
-0.33267742 -1.8060672 0.77469915 8.1066826e-39
-0.32740998 -1.8060672 0.77469915 8.1070413e-39
-0.32214248 -1.8060672 0.77469915 8.1070427e-39
-0.31687498 -1.8060672 0.77469915 8.1070427e-39
-0.31336331 -1.8060671 0.77469921 8.1070441e-39
-0.30809581 -1.8060671 0.77469921 8.1074042e-39
-0.30282831 -1.8060671 0.77469921 8.1074056e-39
-0.29756084 -1.8060671 0.77469921 8.1074056e-39
-0.29229337 -1.8060671 0.77469921 8.1996013e-39
-0.2887817 -1.8060671 0.77469921 8.1992411e-39
-0.1377804 -1.8060668 0.77469939 7.9226543e-39
-0.1325129 -1.8060668 0.77469945 7.9226543e-39
-0.12724541 -1.8060668 0.77469945 7.9226543e-39
-0.12197793 -1.8060668 0.77469945 7.9230144e-39
-0.11671044 -1.8060668 0.77469945 7.9233759e-39
-0.11319879 -1.8060668 0.77469945 8.0152128e-39
-0.1079313 -1.8060668 0.77469945 8.015573e-39
-0.10266382 -1.8060668 0.77469945 8.0155744e-39
-0.097396329 -1.8060668 0.77469945 8.0152128e-39
-0.092128836 -1.8060666 0.77469951 7.9233745e-39
-0.086861357 -1.8060666 0.77469951 7.923013e-39
0.1168147 -1.806066 0.77469975 7.9237417e-39
0.12208218 -1.806066 0.77469975 7.9241032e-39
0.12734966 -1.8060659 0.77469975 7.9237431e-39
0.13261715 -1.8060659 0.77469975 7.8315446e-39
0.13788462 -1.8060659 0.77469975 7.8311831e-39
0.14315212 -1.8060659 0.77469975 7.7389861e-39
0.14666376 -1.8060659 0.77469981 7.8311817e-39
0.15193123 -1.8060659 0.77469981 7.8315432e-39
0.15719871 -1.8060659 0.77469981 8.0159345e-39
0.1624662 -1.8060659 0.77469981 8.016296e-39
0.16773368 -1.8060659 0.77469981 8.0162988e-39
0.17300117 -1.8060659 0.77469981 8.0162974e-39
0.17826866 -1.8060659 0.77469981 8.0162974e-39
0.18178031 -1.8060659 0.77469981 8.0162974e-39
0.18704778 -1.8060658 0.77469987 8.0162974e-39
0.19231527 -1.8060658 0.77469987 8.0162988e-39
0.19758275 -1.8060658 0.77469987 7.9241032e-39
0.2485017 -1.8060656 0.77469999 7.9237403e-39
0.25201339 -1.8060656 0.77469999 7.9233815e-39
0.25728083 -1.8060656 0.77469999 7.9233815e-39
0.26254833 -1.8060656 0.77469999 7.9237403e-39
0.2678158 -1.8060656 0.77470005 7.8315446e-39
0.27308327 -1.8060654 0.77470005 7.8315432e-39
0.27659494 -1.8060654 0.77470005 7.8315446e-39
0.28186241 -1.8060654 0.77470005 7.831546e-39
0.28712988 -1.8060654 0.77470005 7.9237431e-39
0.29239738 -1.8060654 0.77470005 7.9241032e-39
0.29766488 -1.8060654 0.77470005 7.9237431e-39
0.30293232 -1.8060653 0.77470005 7.7397119e-39
0.30819982 -1.8060653 0.77470005 7.6475163e-39
0.31171143 -1.8060653 0.77470005 7.6475149e-39
0.31697893 -1.8060653 0.77470005 7.5553207e-39
0.32224643 -1.8060653 0.77470005 7.6475163e-39
0.32751387 -1.8060653 0.77470005 7.7397119e-39
0.33278137 -1.8060652 0.77470011 7.831909e-39
0.33804885 -1.8060652 0.77470011 7.9237445e-39
0.34331632 -1.8060652 0.77470011 7.9237431e-39
0.34682798 -1.8060652 0.77470011 7.8322663e-39
0.35209545 -1.8060652 0.77470011 7.8322649e-39
0.35736293 -1.8060652 0.77470011 7.8319062e-39
0.3626304 -1.8060651 0.77470016 7.8319048e-39
0.36789787 -1.8060651 0.77470016 7.831546e-39
0.37316537 -1.8060651 0.77470016 7.8315446e-39
0.37843281 -1.8060651 0.77470016 7.7393504e-39
0.38194448 -1.8060651 0.77470016 7.7393504e-39
0.38721195 -1.806065 0.77470022 7.7393504e-39
0.39247942 -1.806065 0.77470022 7.8315474e-39
0.39599109 -1.806065 0.77470022 7.8319076e-39
0.72784185 -1.8060638 0.77470082 8.1074084e-39
0.73310935 -1.8060638 0.77470082 8.0152128e-39
0.73662096 -1.8060637 0.77470088 8.1070483e-39
0.74188846 -1.8060638 0.77470082 8.1074084e-39
0.74715596 -1.8060638 0.77470082 8.1999656e-39
0.75242341 -1.8060637 0.77470088 8.2003257e-39
0.75769085 -1.8060637 0.77470088 8.1999642e-39
0.76295829 -1.8060637 0.77470088 8.1996027e-39
0.76822579 -1.8060637 0.77470088 8.1995999e-39
0.77173746 -1.8060637 0.77470088 8.1992383e-39
0.7770049 -1.8060635 0.77470094 8.1070427e-39
0.78227234 -1.8060635 0.77470094 8.1074042e-39
0.78753984 -1.8060635 0.77470094 8.1074056e-39
0.79280728 -1.8060635 0.77470094 8.1074056e-39
0.79807478 -1.8060635 0.77470094 8.01521e-39
0.80334222 -1.8060634 0.774701 8.0148499e-39
0.80685389 -1.8060634 0.774701 7.923013e-39
0.81212133 -1.8060634 0.774701 8.0148485e-39
0.81738883 -1.8060634 0.774701 8.1070455e-39
0.82265627 -1.8060634 0.774701 8.198881e-39
0.82792377 -1.8060634 0.774701 8.2910766e-39
0.83319116 -1.8060633 0.774701 8.1992397e-39
0.83845866 -1.8060633 0.774701 8.1070455e-39
0.84197032 -1.8060633 0.774701 8.1070441e-39
0.84723783 -1.8060633 0.774701 8.0152086e-39
0.85250527 -1.8060633 0.774701 8.01521e-39
0.85777271 -1.8060633 0.774701 8.01521e-39
0.86304021 -1.8060633 0.774701 8.01521e-39
0.86655182 -1.8060632 0.77470106 8.01521e-39
0.87181926 -1.8060632 0.77470106 8.0148499e-39
0.87708676 -1.8060632 0.77470106 8.106684e-39
0.88235426 -1.8060632 0.77470106 8.1066826e-39
0.88762164 -1.8060632 0.77470112 8.1066826e-39
0.89288914 -1.8060632 0.77470112 8.1070413e-39
0.89815658 -1.8060632 0.77470112 8.1070427e-39
0.90166825 -1.8060632 0.77470112 8.1070427e-39
0.90693575 -1.8060632 0.77470112 8.1070441e-39
0.91220319 -1.8060632 0.77470112 8.1074042e-39
-0.56756514 -1.7980115 0.77469885 8.1988768e-39
-0.56231678 -1.7980115 0.77469885 8.1988768e-39
-0.55706841 -1.7980115 0.77469885 8.1992383e-39
-0.55182004 -1.7980115 0.77469885 8.1992411e-39
-0.54657173 -1.7980115 0.77469885 8.1999614e-39
-0.54307282 -1.7980115 0.77469885 8.2003243e-39
-0.53782445 -1.7980115 0.77469885 8.1999642e-39
-0.53257608 -1.7980115 0.77469885 8.1077658e-39
-0.52732778 -1.7980115 0.77469885 8.1070441e-39
-0.52207935 -1.7980113 0.77469891 8.1070427e-39
-0.51683098 -1.7980113 0.77469891 8.1988796e-39
-0.51158267 -1.7980113 0.77469891 8.2914354e-39
-0.50808376 -1.7980113 0.77469891 8.2917955e-39
-0.50283539 -1.7980113 0.77469891 8.2917955e-39
-0.49758703 -1.7980113 0.77469891 8.2914368e-39
-0.49233869 -1.7980113 0.77469891 8.107407e-39
-0.48709029 -1.7980113 0.77469897 8.1070455e-39
-0.48184195 -1.7980113 0.77469897 8.1070441e-39
-0.47659361 -1.7980113 0.77469897 8.1992425e-39
-0.4730947 -1.7980113 0.77469897 8.1999628e-39
-0.46784633 -1.7980113 0.77469897 8.2917997e-39
-0.46259803 -1.7980113 0.77469897 8.2917997e-39
-0.45734966 -1.7980113 0.77469897 8.1996027e-39
-0.45210129 -1.7980113 0.77469897 8.1992411e-39
-0.44685292 -1.7980113 0.77469897 8.1070441e-39
-0.44160455 -1.7980113 0.77469897 8.1070441e-39
-0.4381057 -1.7980113 0.77469897 8.1074056e-39
-0.43285728 -1.7980111 0.77469903 8.1992425e-39
-0.42760897 -1.7980111 0.77469903 8.1996013e-39
-0.4223606 -1.7980111 0.77469903 8.1074056e-39
-0.41711223 -1.7980111 0.77469903 8.0152114e-39
-0.41186386 -1.7980111 0.77469903 7.9233759e-39
-0.40661556 -1.7980111 0.77469903 8.01521e-39
-0.40311664 -1.7980111 0.77469903 8.01521e-39
-0.39786825 -1.7980109 0.77469909 8.1070469e-39
-0.39261991 -1.7980109 0.77469909 8.1992411e-39
-0.38737154 -1.7980109 0.77469909 8.1074042e-39
-0.38212317 -1.7980109 0.77469909 8.1070455e-39
-0.37687483 -1.7980109 0.77469909 7.9230144e-39
-0.3716265 -1.7980109 0.77469909 7.9226543e-39
-0.36812758 -1.7980109 0.77469909 7.923013e-39
-0.36287922 -1.7980109 0.77469909 7.923013e-39
-0.35763085 -1.7980109 0.77469909 8.01521e-39
-0.35238254 -1.7980109 0.77469909 8.0152114e-39
-0.34713417 -1.7980108 0.77469915 8.01521e-39
-0.34188581 -1.7980108 0.77469915 8.0148499e-39
-0.33663744 -1.7980108 0.77469915 8.0148485e-39
-0.33313853 -1.7980108 0.77469915 8.1066826e-39
-0.32789019 -1.7980108 0.77469915 8.1066826e-39
-0.32264185 -1.7980108 0.77469915 8.1066826e-39
-0.31739348 -1.7980108 0.77469915 8.1066812e-39
-0.31214511 -1.7980107 0.77469915 8.1988768e-39
-0.30689675 -1.7980107 0.77469915 8.1988782e-39
-0.30164838 -1.7980107 0.77469915 8.1992411e-39
-0.29814953 -1.7980107 0.77469915 8.1992411e-39
-0.29465061 -1.7980107 0.77469915 8.1992411e-39
-0.13195163 -1.7980103 0.77469933 7.9222941e-39
-0.12670328 -1.7980103 0.77469933 7.9226528e-39
-0.12320438 -1.7980103 0.77469933 8.0144883e-39
-0.11795603 -1.7980103 0.77469933 8.0148485e-39
-0.11270767 -1.7980103 0.77469933 8.1070455e-39
-0.10745933 -1.7980103 0.77469933 8.1070469e-39
-0.10221098 -1.7980103 0.77469933 8.107407e-39
-0.096962616 -1.7980102 0.77469939 8.0152114e-39
-0.09171427 -1.7980102 0.77469939 8.01521e-39
-0.088215366 -1.7980102 0.77469939 7.9230144e-39
-0.084716469 -1.7980102 0.77469939 7.923013e-39
0.11472083 -1.7980096 0.77469975 7.9237417e-39
0.11821973 -1.7980096 0.77469975 8.0159387e-39
0.12171863 -1.7980096 0.77469975 8.0159387e-39
0.12696698 -1.7980096 0.77469975 8.0155772e-39
0.13221532 -1.7980096 0.77469975 7.9237389e-39
0.13746367 -1.7980096 0.77469975 7.9230172e-39
0.14271203 -1.7980096 0.77469975 7.9230158e-39
0.14796036 -1.7980096 0.77469981 7.9233759e-39
0.15320872 -1.7980095 0.77469981 8.015573e-39
0.15670761 -1.7980095 0.77469981 8.0155744e-39
0.16195595 -1.7980095 0.77469981 8.0159345e-39
0.16720431 -1.7980095 0.77469981 8.0159359e-39
0.17245266 -1.7980094 0.77469981 8.0159345e-39
0.177701 -1.7980094 0.77469987 8.0155744e-39
0.18294933 -1.7980094 0.77469987 8.0155744e-39
0.1881977 -1.7980094 0.77469987 7.9241004e-39
0.1916966 -1.7980094 0.77469987 8.0159373e-39
0.19694495 -1.7980094 0.77469987 7.9244619e-39
0.24767895 -1.7980092 0.77469993 7.9244647e-39
0.2529273 -1.7980092 0.77469993 8.0163002e-39
0.25817564 -1.7980092 0.77469993 8.0163002e-39
0.26167452 -1.7980092 0.77469993 7.9241046e-39
0.26692289 -1.7980092 0.77469993 7.9237431e-39
0.2721712 -1.798009 0.77469999 7.9233801e-39
0.27741957 -1.798009 0.77469999 7.8315432e-39
0.28266793 -1.798009 0.77469999 7.831546e-39
0.28791624 -1.7980089 0.77470005 7.8319062e-39
0.29316461 -1.7980089 0.77470005 7.8319076e-39
0.29666346 -1.7980089 0.77470005 7.8319076e-39
0.30191183 -1.7980089 0.77470005 7.7397105e-39
0.3071602 -1.7980089 0.77470005 7.7393504e-39
0.31240854 -1.7980089 0.77470005 7.6471548e-39
0.31765687 -1.7980089 0.77470005 7.7393504e-39
0.32290521 -1.7980089 0.77470011 7.7393518e-39
0.32815355 -1.7980089 0.77470011 7.9237431e-39
0.33165246 -1.7980089 0.77470011 7.9237445e-39
0.3369008 -1.7980089 0.77470011 7.9241032e-39
0.34214914 -1.7980088 0.77470016 7.9237431e-39
0.34739748 -1.7980088 0.77470016 7.8319062e-39
0.35264581 -1.7980088 0.77470016 7.8319076e-39
0.35789418 -1.7980088 0.77470016 7.8319076e-39
0.36314249 -1.7980088 0.77470016 7.8319062e-39
0.3666414 -1.7980088 0.77470016 7.8319048e-39
0.37188977 -1.7980088 0.77470016 7.8315446e-39
0.37713808 -1.7980088 0.77470016 7.8315446e-39
0.38238645 -1.7980087 0.77470016 7.7393504e-39
0.38763475 -1.7980087 0.77470022 7.7393504e-39
0.39288312 -1.7980087 0.77470022 7.7393518e-39
0.72177899 -1.7980075 0.77470076 8.1996013e-39
0.72702736 -1.7980075 0.77470076 8.1992425e-39
0.73227572 -1.7980075 0.77470076 8.1070455e-39
0.73752397 -1.7980074 0.77470082 8.1070441e-39
0.74277234 -1.7980074 0.77470082 8.1992425e-39
0.74802071 -1.7980074 0.77470082 8.1999642e-39
0.75151956 -1.7980074 0.77470082 8.2921598e-39
0.75676793 -1.7980074 0.77470082 8.1999628e-39
0.76201624 -1.7980074 0.77470082 8.1996027e-39
0.7672646 -1.7980072 0.77470088 8.1074056e-39
0.77251291 -1.7980072 0.77470088 8.1070441e-39
0.77776122 -1.7980072 0.77470088 8.1070441e-39
0.78300959 -1.7980072 0.77470088 8.1074056e-39
0.7865085 -1.7980072 0.77470088 8.1996013e-39
0.79175675 -1.7980072 0.77470088 8.107407e-39
0.79700512 -1.7980072 0.77470094 8.1074056e-39
0.80225348 -1.7980072 0.77470094 8.0152114e-39
0.80750179 -1.7980072 0.77470094 8.0152114e-39
0.8127501 -1.7980072 0.77470094 8.01521e-39
0.81799847 -1.7980072 0.77470094 8.0152114e-39
0.82324684 -1.7980072 0.774701 8.1074056e-39
0.82849509 -1.7980071 0.774701 8.1992411e-39
0.831994 -1.7980071 0.774701 8.1074056e-39
0.83724236 -1.7980071 0.774701 8.0152086e-39
0.84249067 -1.7980071 0.774701 8.0148499e-39
0.84773898 -1.798007 0.774701 7.9226543e-39
0.85298729 -1.798007 0.77470106 7.923013e-39
0.85823566 -1.798007 0.77470106 8.0148499e-39
0.86348403 -1.798007 0.77470106 8.0152114e-39
0.86698288 -1.798007 0.77470106 8.0152114e-39
0.87223125 -1.798007 0.77470106 8.01521e-39
0.87747955 -1.798007 0.77470106 8.0152086e-39
0.88272786 -1.798007 0.77470112 8.0148485e-39
0.88797623 -1.7980069 0.77470112 8.1066826e-39
0.89322454 -1.7980069 0.77470112 8.1066826e-39
0.89847291 -1.7980069 0.77470112 8.1066826e-39
0.90197176 -1.7980069 0.77470112 8.1066826e-39
0.90722013 -1.7980068 0.77470112 8.1066826e-39
0.91246843 -1.7980069 0.77470112 8.1988796e-39
-0.56194508 -1.7900133 0.77469885 8.1988768e-39
-0.55845881 -1.7900133 0.77469885 8.1992383e-39
-0.55322945 -1.7900133 0.77469885 8.1992425e-39
-0.54800004 -1.7900133 0.77469885 8.1999642e-39
-0.54277074 -1.7900133 0.77469885 8.2921612e-39
-0.53754133 -1.7900133 0.77469885 8.1999656e-39
-0.53231204 -1.7900133 0.77469885 8.107407e-39
-0.52708262 -1.7900133 0.77469885 8.1070441e-39
-0.52185327 -1.7900133 0.77469885 8.1070427e-39
-0.51662385 -1.7900132 0.77469891 8.1995999e-39
-0.51313764 -1.7900132 0.77469891 8.2914368e-39
-0.50790834 -1.7900133 0.77469885 8.2917969e-39
-0.50267893 -1.7900132 0.77469891 8.3836324e-39
-0.49744958 -1.7900132 0.77469891 8.2914354e-39
-0.49222022 -1.7900132 0.77469891 8.1992397e-39
-0.48699084 -1.7900132 0.77469891 8.1070427e-39
-0.48176152 -1.7900132 0.77469891 8.1070441e-39
-0.47827524 -1.7900132 0.77469891 8.1992411e-39
-0.47304592 -1.7900132 0.77469891 8.1996027e-39
-0.46781653 -1.7900132 0.77469891 8.2921584e-39
-0.46258715 -1.7900131 0.77469897 8.2917983e-39
-0.45735782 -1.7900131 0.77469897 8.1996013e-39
-0.45212844 -1.7900131 0.77469897 8.1074042e-39
-0.44689912 -1.7900131 0.77469897 8.1070441e-39
-0.44341284 -1.7900131 0.77469897 8.1070441e-39
-0.43818349 -1.7900131 0.77469897 8.107407e-39
-0.43295413 -1.7900131 0.77469897 8.1996041e-39
-0.42772475 -1.790013 0.77469903 8.1996027e-39
-0.42249542 -1.7900131 0.77469897 8.107407e-39
-0.41726607 -1.7900131 0.77469897 8.0152114e-39
-0.41203666 -1.790013 0.77469903 8.01521e-39
-0.40680733 -1.790013 0.77469903 8.01521e-39
-0.40157795 -1.790013 0.77469903 8.1074042e-39
-0.39809173 -1.790013 0.77469903 8.1074056e-39
-0.39286235 -1.790013 0.77469903 8.1992397e-39
-0.38763303 -1.790013 0.77469903 8.1992397e-39
-0.38240364 -1.790013 0.77469903 8.1070441e-39
-0.37717426 -1.7900128 0.77469909 8.0148485e-39
-0.3719449 -1.7900128 0.77469909 7.9226543e-39
-0.36671555 -1.7900128 0.77469909 7.9226543e-39
-0.36322933 -1.7900128 0.77469909 8.0148499e-39
-0.35799995 -1.7900128 0.77469909 8.01521e-39
-0.35277063 -1.7900128 0.77469909 8.0152114e-39
-0.34754124 -1.7900128 0.77469909 8.0152086e-39
-0.34231186 -1.7900127 0.77469915 8.0148499e-39
-0.33708254 -1.7900128 0.77469909 8.0148485e-39
-0.33185315 -1.7900128 0.77469909 8.0148471e-39
-0.32836694 -1.7900128 0.77469909 8.1066826e-39
-0.32313755 -1.7900127 0.77469915 8.1066812e-39
-0.31790823 -1.7900127 0.77469915 8.1066798e-39
-0.31267884 -1.7900127 0.77469915 8.1066812e-39
-0.30744946 -1.7900127 0.77469915 8.1988782e-39
-0.30222014 -1.7900127 0.77469915 8.1992383e-39
-0.12616508 -1.7900124 0.77469933 7.9226514e-39
-0.12267885 -1.7900124 0.77469933 8.0144883e-39
-0.11744948 -1.7900124 0.77469933 8.0148485e-39
-0.11222012 -1.7900122 0.77469939 8.1070455e-39
-0.10699076 -1.7900122 0.77469939 8.1074056e-39
-0.10176141 -1.7900122 0.77469939 8.107407e-39
-0.09827517 -1.7900122 0.77469939 8.1074056e-39
-0.093045816 -1.7900122 0.77469939 8.01521e-39
-0.087816462 -1.7900122 0.77469939 7.9230144e-39
-0.084330224 -1.7900122 0.77469939 7.9230144e-39
0.11438524 -1.7900116 0.77469969 7.9237403e-39
0.11787148 -1.7900116 0.77469969 7.9237403e-39
0.12310083 -1.7900116 0.77469969 7.9233787e-39
0.12833019 -1.7900116 0.77469969 7.9233773e-39
0.13181642 -1.7900116 0.77469969 7.9233773e-39
0.13704577 -1.7900115 0.77469975 7.9233773e-39
0.14227512 -1.7900115 0.77469975 7.9233759e-39
0.14750448 -1.7900115 0.77469975 7.9233773e-39
0.15273383 -1.7900115 0.77469975 8.015573e-39
0.15796319 -1.7900115 0.77469975 8.0155744e-39
0.16319253 -1.7900115 0.77469975 8.1077714e-39
0.16667877 -1.7900115 0.77469975 8.1077714e-39
0.17190811 -1.7900114 0.77469981 8.0155744e-39
0.17713746 -1.7900114 0.77469981 8.015573e-39
0.18236682 -1.7900114 0.77469981 8.015573e-39
0.18759617 -1.7900114 0.77469981 7.9237403e-39
0.19282553 -1.7900114 0.77469981 7.9241004e-39
0.19805487 -1.7900113 0.77469987 7.9241032e-39
0.2015411 -1.7900113 0.77469987 7.9244633e-39
0.24686214 -1.7900112 0.77469993 7.9248263e-39
0.2520915 -1.7900112 0.77469993 8.0166632e-39
0.25732082 -1.790011 0.77469999 8.0166632e-39
0.26255018 -1.790011 0.77469999 7.924106e-39
0.26777953 -1.790011 0.77469999 7.9237431e-39
0.27300888 -1.790011 0.77469999 7.8315446e-39
0.27823824 -1.790011 0.77469999 7.8311845e-39
0.28172445 -1.790011 0.77469999 7.8315446e-39
0.28695384 -1.7900109 0.77470005 7.8315474e-39
0.29218316 -1.7900109 0.77470005 7.8319076e-39
0.29741251 -1.7900109 0.77470005 7.8319076e-39
0.30264187 -1.7900109 0.77470005 7.8319076e-39
0.30787119 -1.7900109 0.77470005 7.8319076e-39
0.31310058 -1.7900109 0.77470005 7.8319104e-39
0.31658679 -1.7900108 0.77470005 7.8319104e-39
0.32181612 -1.7900108 0.77470005 7.8322691e-39
0.3270455 -1.7900108 0.77470005 7.9241032e-39
0.33227482 -1.7900108 0.77470005 7.9241018e-39
0.33750421 -1.7900108 0.77470005 7.9241032e-39
0.34273353 -1.7900108 0.77470005 7.9241018e-39
0.34796286 -1.7900108 0.77470005 7.9241018e-39
0.35319221 -1.7900108 0.77470016 7.9241032e-39
0.35842156 -1.7900108 0.77470016 7.9241032e-39
0.36190778 -1.7900108 0.77470016 7.9241032e-39
0.36713716 -1.7900108 0.77470016 7.9241018e-39
0.37236649 -1.7900107 0.77470016 7.9237431e-39
0.37759581 -1.7900107 0.77470016 7.8315474e-39
0.3828252 -1.7900107 0.77470016 7.7397105e-39
0.38805452 -1.7900107 0.77470016 7.7393504e-39
0.3932839 -1.7900107 0.77470016 7.7397105e-39
0.71401691 -1.7900094 0.77470076 8.3839925e-39
0.71750313 -1.7900094 0.77470076 8.3836324e-39
0.72273254 -1.7900094 0.77470076 8.1995999e-39
0.72796184 -1.7900094 0.77470076 8.1992397e-39
0.73319119 -1.7900094 0.77470076 8.1070441e-39
0.73842049 -1.7900093 0.77470076 8.1070441e-39
0.7419067 -1.7900093 0.77470076 8.1992411e-39
0.74713612 -1.7900093 0.77470076 8.1996041e-39
0.75236541 -1.7900093 0.77470076 8.2921598e-39
0.75759476 -1.7900093 0.77470076 8.2917983e-39
0.76282406 -1.7900091 0.77470082 8.1996013e-39
0.76805341 -1.7900091 0.77470082 8.1070455e-39
0.77328277 -1.7900091 0.77470082 8.1070441e-39
0.77676898 -1.7900091 0.77470082 8.1070455e-39
0.78199834 -1.7900091 0.77470082 8.1992425e-39
0.78722769 -1.7900091 0.77470082 8.1996041e-39
0.79245698 -1.790009 0.77470088 8.1996027e-39
0.79768634 -1.790009 0.77470088 8.107407e-39
0.80291569 -1.790009 0.77470088 8.0152114e-39
0.80814505 -1.790009 0.77470088 8.01521e-39
0.81163126 -1.790009 0.77470088 8.01521e-39
0.81686056 -1.790009 0.77470088 8.1070455e-39
0.82208991 -1.7900089 0.77470094 8.1074056e-39
0.82731926 -1.7900089 0.77470094 8.1992397e-39
0.83254856 -1.7900089 0.77470094 8.1992383e-39
0.83777797 -1.7900089 0.77470094 8.1070441e-39
0.84300727 -1.7900089 0.77470094 8.0148485e-39
0.84823662 -1.7900089 0.77470094 7.9226543e-39
0.85346597 -1.7900089 0.77470094 7.923013e-39
0.85695213 -1.7900089 0.774701 8.0148499e-39
0.86218154 -1.7900089 0.774701 8.01521e-39
0.86741084 -1.7900089 0.774701 8.0152114e-39
0.87264013 -1.7900089 0.774701 8.0148499e-39
0.87786955 -1.7900089 0.774701 8.0148499e-39
0.88309884 -1.7900088 0.77470106 8.0148485e-39
0.88832819 -1.7900088 0.77470106 8.1066826e-39
0.89181441 -1.7900088 0.77470106 8.1066826e-39
0.8970437 -1.7900088 0.77470106 8.1066798e-39
0.90227306 -1.7900088 0.77470106 8.1066798e-39
0.90750241 -1.7900088 0.77470112 8.1066812e-39
0.91273177 -1.7900088 0.77470106 8.1988782e-39
-0.55810237 -1.782073 0.77469885 8.1992411e-39
-0.55289185 -1.7820729 0.77469885 8.1996027e-39
-0.54768133 -1.782073 0.77469879 8.2914396e-39
-0.54247081 -1.7820729 0.77469885 8.2917983e-39
-0.53726029 -1.7820729 0.77469885 8.1996013e-39
-0.53204983 -1.7820729 0.77469885 8.1992411e-39
-0.52683932 -1.7820729 0.77469885 8.1070441e-39
-0.5216288 -1.7820729 0.77469885 8.1992397e-39
-0.51815516 -1.7820729 0.77469885 8.1996013e-39
-0.5129447 -1.7820729 0.77469885 8.2914382e-39
-0.50773412 -1.7820728 0.77469891 8.2921584e-39
-0.50252366 -1.7820728 0.77469891 8.2917983e-39
-0.49731314 -1.7820728 0.77469891 8.2914368e-39
-0.49210262 -1.7820728 0.77469891 8.1070455e-39
-0.4868921 -1.7820728 0.77469891 8.1070427e-39
-0.48341846 -1.7820728 0.77469891 8.1070427e-39
-0.47820795 -1.7820728 0.77469891 8.1992397e-39
-0.47299749 -1.7820728 0.77469891 8.2917969e-39
-0.46778694 -1.7820728 0.77469891 8.2917997e-39
-0.46257645 -1.7820728 0.77469891 8.2917997e-39
-0.45736596 -1.7820728 0.77469891 8.1996027e-39
-0.45215547 -1.7820728 0.77469891 8.1992397e-39
-0.44694495 -1.7820728 0.77469891 8.1992383e-39
-0.44173443 -1.7820728 0.77469891 8.1992397e-39
-0.43826079 -1.7820728 0.77469891 8.1996013e-39
-0.43305027 -1.7820728 0.77469891 8.1996041e-39
-0.42783976 -1.7820728 0.77469891 8.1996041e-39
-0.4226293 -1.7820728 0.77469891 8.107407e-39
-0.41741878 -1.7820727 0.77469897 8.1074056e-39
-0.41220826 -1.7820727 0.77469897 8.1070441e-39
-0.40699774 -1.7820727 0.77469897 8.1988796e-39
-0.40178725 -1.7820727 0.77469897 8.1988782e-39
-0.39657676 -1.7820727 0.77469897 8.2910724e-39
-0.39310312 -1.7820727 0.77469897 8.2910724e-39
-0.3878926 -1.7820727 0.77469897 8.1992369e-39
-0.38268209 -1.7820725 0.77469903 8.1988782e-39
-0.3774716 -1.7820727 0.77469897 8.0144869e-39
-0.37226111 -1.7820727 0.77469897 7.9226528e-39
-0.36705059 -1.7820725 0.77469903 7.9226528e-39
-0.36184007 -1.7820725 0.77469903 7.923013e-39
-0.35836643 -1.7820725 0.77469903 7.9230144e-39
-0.35315591 -1.7820725 0.77469903 8.0148499e-39
-0.34794539 -1.7820725 0.77469903 8.0148485e-39
-0.3427349 -1.7820725 0.77469903 8.0148471e-39
-0.33752441 -1.7820725 0.77469903 8.0148471e-39
-0.33231393 -1.7820725 0.77469909 8.1066826e-39
-0.32710338 -1.7820724 0.77469909 8.1066826e-39
-0.32189289 -1.7820724 0.77469909 8.1066812e-39
-0.3166824 -1.7820724 0.77469909 8.1066812e-39
-0.31320876 -1.7820724 0.77469909 8.1066826e-39
-0.30799824 -1.7820724 0.77469909 8.1070427e-39
-0.12215708 -1.7820719 0.77469927 7.9226528e-39
-0.11694659 -1.7820719 0.77469927 8.0148485e-39
-0.11173609 -1.7820719 0.77469927 8.01521e-39
-0.10826243 -1.7820719 0.77469927 8.1074056e-39
-0.10305192 -1.7820719 0.77469933 8.107407e-39
-0.097841427 -1.7820719 0.77469933 8.107407e-39
-0.09263093 -1.7820719 0.77469933 8.0152114e-39
-0.087420434 -1.7820719 0.77469933 8.0148513e-39
-0.083946772 -1.7820719 0.77469933 7.9230144e-39
0.11405208 -1.7820712 0.77469969 7.9233787e-39
0.11752574 -1.7820712 0.77469969 7.9233773e-39
0.12273624 -1.7820711 0.77469969 7.9230172e-39
0.12794672 -1.7820711 0.77469975 7.9233759e-39
0.13315722 -1.7820711 0.77469975 7.9233759e-39
0.13836771 -1.7820711 0.77469975 7.9237375e-39
0.14184138 -1.7820711 0.77469975 7.9233773e-39
0.14705187 -1.7820711 0.77469975 7.9233759e-39
0.15226236 -1.7820711 0.77469981 8.0155715e-39
0.15747285 -1.7820711 0.77469981 8.015573e-39
0.16268334 -1.7820711 0.77469981 8.10777e-39
0.16789384 -1.7820711 0.77469981 8.0159331e-39
0.17310433 -1.7820711 0.77469981 8.015573e-39
0.17657799 -1.782071 0.77469981 8.0155715e-39
0.18178849 -1.7820711 0.77469981 8.0155715e-39
0.18699898 -1.782071 0.77469981 7.9237389e-39
0.19220947 -1.782071 0.77469981 7.9233801e-39
0.19741996 -1.782071 0.77469981 7.8319048e-39
0.20089363 -1.782071 0.77469981 7.9237431e-39
0.24952488 -1.7820708 0.77469993 7.9244661e-39
0.25299853 -1.7820708 0.77469993 7.9248263e-39
0.25820905 -1.7820708 0.77469993 7.9244675e-39
0.26341951 -1.7820708 0.77469993 7.924106e-39
0.26689318 -1.7820708 0.77469993 7.8319076e-39
0.27210367 -1.7820706 0.77469993 7.8311859e-39
0.27731413 -1.7820706 0.77469999 7.7393504e-39
0.28252465 -1.7820706 0.77469999 7.7397091e-39
0.28773516 -1.7820706 0.77469999 7.8315474e-39
0.29294562 -1.7820706 0.77469999 7.8319062e-39
0.29815614 -1.7820706 0.77469999 7.831909e-39
0.30162978 -1.7820706 0.77469999 7.831909e-39
0.30684027 -1.7820706 0.77470005 7.7400735e-39
0.31205076 -1.7820705 0.77470005 7.7400749e-39
0.31726125 -1.7820705 0.77470005 7.7400763e-39
0.32247174 -1.7820705 0.77470005 7.8319104e-39
0.32768223 -1.7820705 0.77470005 7.8319076e-39
0.33289272 -1.7820704 0.77470011 7.9241018e-39
0.3381032 -1.7820704 0.77470011 7.9241032e-39
0.34331369 -1.7820704 0.77470011 7.9241046e-39
0.34678733 -1.7820704 0.77470011 7.9241046e-39
0.35199785 -1.7820704 0.77470011 7.9241046e-39
0.35720831 -1.7820704 0.77470011 7.9241046e-39
0.36241883 -1.7820704 0.77470011 7.9241046e-39
0.36762929 -1.7820703 0.77470016 7.924106e-39
0.37283981 -1.7820703 0.77470016 7.831909e-39
0.37805027 -1.7820703 0.77470016 7.8319076e-39
0.38326079 -1.7820703 0.77470016 7.7393518e-39
0.38847125 -1.7820703 0.77470016 7.6475149e-39
0.39194489 -1.7820703 0.77470016 7.7393504e-39
0.70457399 -1.7820692 0.7747007 8.2914382e-39
0.70804769 -1.7820692 0.7747007 8.2917983e-39
0.71325815 -1.7820692 0.7747007 8.2921584e-39
0.71846867 -1.7820692 0.7747007 8.2917969e-39
0.72194225 -1.782069 0.77470076 8.2914368e-39
0.72715271 -1.782069 0.77470076 8.1070455e-39
0.73236322 -1.782069 0.77470076 8.1070427e-39
0.73757374 -1.782069 0.77470076 8.1070441e-39
0.7427842 -1.782069 0.77470076 8.1995999e-39
0.74799466 -1.782069 0.77470076 8.2917983e-39
0.75320518 -1.782069 0.77470076 8.2921598e-39
0.75667882 -1.7820688 0.77470082 8.2917997e-39
0.76188928 -1.7820688 0.77470082 8.1996027e-39
0.7670998 -1.7820688 0.77470082 8.1992397e-39
0.77231026 -1.7820688 0.77470082 8.1992383e-39
0.77752078 -1.7820688 0.77470082 8.1992397e-39
0.78273118 -1.7820687 0.77470088 8.1996027e-39
0.78794169 -1.7820687 0.77470088 8.1996055e-39
0.79315215 -1.7820687 0.77470088 8.1992439e-39
0.79836267 -1.7820687 0.77470088 8.107407e-39
0.80183631 -1.7820687 0.77470088 8.1074056e-39
0.80704677 -1.7820687 0.77470088 8.1070441e-39
0.81225729 -1.7820687 0.77470088 8.1988796e-39
0.81746769 -1.7820686 0.77470094 8.1988782e-39
0.82267821 -1.7820686 0.77470094 8.2910724e-39
0.82788873 -1.7820686 0.77470094 8.2910724e-39
0.83309919 -1.7820686 0.77470094 8.1992369e-39
0.83657283 -1.7820686 0.77470094 8.1070427e-39
0.84178329 -1.7820685 0.774701 8.0144869e-39
0.84699374 -1.7820685 0.774701 7.9226528e-39
0.85220426 -1.7820685 0.774701 7.9226528e-39
0.85741472 -1.7820685 0.774701 7.923013e-39
0.86262524 -1.7820685 0.774701 7.9230144e-39
0.8678357 -1.7820685 0.774701 8.0148499e-39
0.87304616 -1.7820685 0.774701 8.0148485e-39
0.87825662 -1.7820685 0.77470106 8.0148471e-39
0.88173032 -1.7820685 0.77470106 8.0148471e-39
0.88694078 -1.7820685 0.77470106 8.1066826e-39
0.89215124 -1.7820685 0.77470106 8.1066826e-39
0.89736176 -1.7820685 0.77470106 8.1066812e-39
0.90257215 -1.7820684 0.77470112 8.1066812e-39
0.90778267 -1.7820684 0.77470112 8.1066826e-39
0.91299313 -1.7820684 0.77470112 8.1988796e-39
-0.91425091 -1.7741907 0.77469838 7.6475163e-39
-0.55774844 -1.7741897 0.77469879 8.2914354e-39
-0.55255663 -1.7741897 0.77469879 8.2914368e-39
-0.54736489 -1.7741897 0.77469879 8.2914368e-39
-0.54217315 -1.7741897 0.77469879 8.2914368e-39
-0.53698128 -1.7741896 0.77469879 8.2914354e-39
-0.53178954 -1.7741896 0.77469879 8.1992397e-39
-0.52659774 -1.7741896 0.77469879 8.1992383e-39
-0.52313656 -1.7741896 0.77469879 8.1992397e-39
-0.51794481 -1.7741896 0.77469879 8.1995999e-39
-0.51275301 -1.7741896 0.77469879 8.2914368e-39
-0.50756121 -1.7741896 0.77469879 8.2917969e-39
-0.50236946 -1.7741896 0.77469879 8.2917969e-39
-0.49717769 -1.7741896 0.77469879 8.1992411e-39
-0.49198586 -1.7741896 0.77469879 8.1074042e-39
-0.48679408 -1.7741895 0.77469885 8.1070441e-39
-0.48160231 -1.7741895 0.77469885 8.1992397e-39
-0.47814113 -1.7741895 0.77469885 8.1996013e-39
-0.47294936 -1.7741895 0.77469885 8.2917969e-39
-0.46775758 -1.7741895 0.77469885 8.2921584e-39
-0.46256581 -1.7741895 0.77469885 8.2917969e-39
-0.45737404 -1.7741895 0.77469885 8.1995999e-39
-0.45218223 -1.7741895 0.77469885 8.1992383e-39
-0.44699043 -1.7741894 0.77469891 8.1992383e-39
-0.44179866 -1.7741894 0.77469891 8.1992397e-39
-0.43660688 -1.7741894 0.77469891 8.1996013e-39
-0.4331457 -1.7741894 0.77469891 8.1996027e-39
-0.42795393 -1.7741894 0.77469891 8.107407e-39
-0.42276216 -1.7741894 0.77469891 8.1074056e-39
-0.41757038 -1.7741894 0.77469891 8.1992397e-39
-0.41237861 -1.7741894 0.77469891 8.2910752e-39
-0.40718684 -1.7741894 0.77469891 8.2910724e-39
-0.40199506 -1.7741894 0.77469891 8.2910724e-39
-0.39680323 -1.7741892 0.77469897 8.3829065e-39
-0.39161146 -1.7741892 0.77469897 8.3829065e-39
-0.38815027 -1.7741892 0.77469897 8.2907123e-39
-0.3829585 -1.7741892 0.77469897 8.1066812e-39
-0.37776673 -1.7741892 0.77469897 8.0144869e-39
-0.37257496 -1.7741892 0.77469897 7.9226514e-39
-0.36738318 -1.7741892 0.77469897 7.9226528e-39
-0.36219141 -1.7741892 0.77469897 7.9226528e-39
-0.35699964 -1.7741891 0.77469903 7.9226528e-39
-0.35180786 -1.7741891 0.77469903 7.923013e-39
-0.34661609 -1.7741891 0.77469903 8.0148485e-39
-0.34315485 -1.7741891 0.77469903 8.0148471e-39
-0.33796307 -1.7741891 0.77469903 8.0148457e-39
-0.3327713 -1.7741891 0.77469903 8.1066812e-39
-0.32757953 -1.7741891 0.77469903 8.0148457e-39
-0.32238775 -1.7741891 0.77469903 8.0148471e-39
-0.31719598 -1.7741891 0.77469903 7.923013e-39
-0.31200421 -1.7741891 0.77469903 8.0152086e-39
-0.30854303 -1.774189 0.77469909 8.0152114e-39
-0.11817789 -1.7741886 0.77469933 7.9230172e-39
-0.11298612 -1.7741886 0.77469933 8.0152142e-39
-0.10779434 -1.7741886 0.77469933 8.0159345e-39
-0.10260257 -1.7741886 0.77469933 8.0155744e-39
-0.097410791 -1.7741885 0.77469933 8.015573e-39
-0.092219025 -1.7741885 0.77469933 8.0152114e-39
-0.087027252 -1.7741886 0.77469933 8.0148513e-39
-0.083566062 -1.7741885 0.77469933 7.9230144e-39
0.1137213 -1.7741879 0.77469969 7.9237389e-39
0.11718248 -1.7741879 0.77469969 7.9233787e-39
0.12237425 -1.7741879 0.77469969 8.0152128e-39
0.12756602 -1.7741879 0.77469969 8.0152128e-39
0.13275778 -1.7741878 0.77469969 8.015573e-39
0.13794956 -1.7741878 0.77469975 8.015573e-39
0.14314133 -1.7741878 0.77469969 7.9233759e-39
0.1483331 -1.7741878 0.77469975 7.9233759e-39
0.15179428 -1.7741878 0.77469975 8.0152128e-39
0.15698606 -1.7741878 0.77469975 8.0155715e-39
0.16217783 -1.7741878 0.77469975 8.0155715e-39
0.1673696 -1.7741878 0.77469975 8.0152114e-39
0.17256136 -1.7741877 0.77469981 8.0152114e-39
0.17775314 -1.7741877 0.77469981 8.0152114e-39
0.18294489 -1.7741877 0.77469981 8.0152114e-39
0.18813667 -1.7741877 0.77469981 7.9230172e-39
0.19332844 -1.7741877 0.77469981 7.8311817e-39
0.19678962 -1.7741877 0.77469981 7.8311831e-39
0.2002508 -1.7741877 0.77469981 7.8315446e-39
0.24870731 -1.7741874 0.77469993 7.8319076e-39
0.25216848 -1.7741874 0.77469993 7.8322705e-39
0.25736025 -1.7741874 0.77469993 7.8322705e-39
0.26255202 -1.7741874 0.77469993 7.8322677e-39
0.2677438 -1.7741873 0.77469993 7.8315474e-39
0.27293557 -1.7741873 0.77469999 7.7393504e-39
0.27812734 -1.7741873 0.77469999 7.8311859e-39
0.28331912 -1.7741873 0.77469999 7.7393518e-39
0.2867803 -1.7741873 0.77469999 7.7393518e-39
0.29197204 -1.7741873 0.77469999 7.6475163e-39
0.29716378 -1.7741873 0.77470005 7.6475177e-39
0.30235556 -1.7741873 0.77470005 7.6475163e-39
0.30754733 -1.7741873 0.77470005 7.5556808e-39
0.3127391 -1.7741873 0.77470005 7.5553221e-39
0.31793088 -1.7741873 0.77470005 7.6475177e-39
0.32312265 -1.7741873 0.77470005 7.6478764e-39
0.32831436 -1.7741872 0.77470005 7.8315488e-39
0.33177555 -1.7741872 0.77470005 7.8319076e-39
0.33696732 -1.7741872 0.77470005 7.8322677e-39
0.34215909 -1.7741872 0.77470005 7.8322705e-39
0.34735087 -1.7741872 0.77470005 7.9244647e-39
0.35254264 -1.7741871 0.77470005 7.9244647e-39
0.35773441 -1.7741871 0.77470005 7.9241046e-39
0.36292619 -1.7741871 0.77470005 7.924106e-39
0.36811796 -1.7741871 0.77470005 7.8322705e-39
0.37330973 -1.7741871 0.77470005 7.831909e-39
0.37677091 -1.7741871 0.77470005 7.7400721e-39
0.38196263 -1.7741871 0.77470005 7.6475163e-39
0.3871544 -1.774187 0.77470011 7.6475149e-39
0.39061558 -1.774187 0.77470011 7.5553207e-39
0.69866014 -1.7741859 0.77470064 8.1995999e-39
0.70212132 -1.7741859 0.77470064 8.2914368e-39
0.70731306 -1.7741859 0.77470064 8.2914368e-39
0.7125048 -1.7741859 0.77470064 8.2917969e-39
0.71769655 -1.7741859 0.77470064 8.2914382e-39
0.72288829 -1.7741858 0.7747007 8.1996013e-39
0.72808003 -1.7741858 0.7747007 8.1070455e-39
0.73327184 -1.7741858 0.7747007 8.1070441e-39
0.73673302 -1.7741858 0.7747007 8.1992397e-39
0.74192476 -1.7741857 0.77470076 8.1995999e-39
0.74711651 -1.7741857 0.77470076 8.2917983e-39
0.75230831 -1.7741857 0.77470076 8.2917983e-39
0.75750005 -1.7741857 0.77470076 8.2917969e-39
0.76269186 -1.7741857 0.77470076 8.1995999e-39
0.76788354 -1.7741857 0.77470076 8.1992383e-39
0.77307534 -1.7741857 0.77470076 8.1992383e-39
0.77826709 -1.7741857 0.77470076 8.1995999e-39
0.78172821 -1.7741857 0.77470082 8.1996013e-39
0.78691995 -1.7741857 0.77470082 8.1996027e-39
0.79211175 -1.7741857 0.77470082 8.107407e-39
0.79730356 -1.7741857 0.77470082 8.1074056e-39
0.8024953 -1.7741857 0.77470082 8.1992411e-39
0.80768704 -1.7741854 0.77470088 8.2910738e-39
0.81287879 -1.7741854 0.77470088 8.2910724e-39
0.81807053 -1.7741854 0.77470088 8.291071e-39
0.82326227 -1.7741854 0.77470088 8.3829065e-39
0.82672346 -1.7741854 0.77470088 8.3829065e-39
0.8319152 -1.7741854 0.77470088 8.1988768e-39
0.83710694 -1.7741854 0.77470094 8.1066812e-39
0.84229875 -1.7741854 0.77470094 8.0144869e-39
0.84749049 -1.7741854 0.77470094 7.9226514e-39
0.85268223 -1.7741854 0.77470094 7.9226528e-39
0.85787398 -1.7741852 0.774701 7.9226528e-39
0.86306572 -1.7741852 0.774701 7.9226528e-39
0.86825746 -1.7741852 0.774701 7.923013e-39
0.87171865 -1.7741852 0.774701 8.0148485e-39
0.87691045 -1.7741852 0.774701 8.0148457e-39
0.88210219 -1.7741852 0.774701 8.1066812e-39
0.88729393 -1.7741852 0.774701 8.1066812e-39
0.89248568 -1.7741852 0.774701 8.0148471e-39
0.89767742 -1.7741851 0.77470106 8.0148471e-39
0.90286916 -1.7741851 0.77470106 7.923013e-39
0.90806091 -1.7741851 0.77470106 8.0148499e-39
0.91325265 -1.7741849 0.77470112 8.0155715e-39
-0.91434753 -1.7663637 0.77469832 7.4631264e-39
-0.55567265 -1.7663628 0.77469879 8.1992383e-39
-0.55222386 -1.7663628 0.77469879 8.1992383e-39
-0.54705071 -1.7663629 0.77469873 8.1988782e-39
-0.54187751 -1.7663629 0.77469873 8.1988768e-39
-0.53842872 -1.7663629 0.77469873 8.1985167e-39
-0.53325546 -1.7663628 0.77469879 8.1988768e-39
-0.52808231 -1.7663628 0.77469879 8.2910724e-39
-0.52290916 -1.7663628 0.77469879 8.291434e-39
-0.51773596 -1.7663628 0.77469879 8.2914368e-39
-0.51256275 -1.7663628 0.77469879 8.1996027e-39
-0.50738955 -1.7663628 0.77469879 8.1996027e-39
-0.50221634 -1.7663627 0.77469885 8.1992425e-39
-0.49704313 -1.7663627 0.77469885 8.1074056e-39
-0.49186996 -1.7663627 0.77469885 8.1070455e-39
-0.48669678 -1.7663627 0.77469885 8.1074056e-39
-0.483248 -1.7663627 0.77469885 8.107407e-39
-0.47807482 -1.7663627 0.77469885 8.1996027e-39
-0.47290164 -1.7663627 0.77469885 8.2917983e-39
-0.46772844 -1.7663627 0.77469885 8.2917997e-39
-0.46255523 -1.7663627 0.77469885 8.2917983e-39
-0.45738205 -1.7663627 0.77469885 8.1996013e-39
-0.45220888 -1.7663627 0.77469885 8.1995999e-39
-0.44703564 -1.7663627 0.77469885 8.1995999e-39
-0.44186246 -1.7663627 0.77469885 8.2914368e-39
-0.43841368 -1.7663627 0.77469885 8.1996027e-39
-0.4332405 -1.7663627 0.77469885 8.1996013e-39
-0.42806733 -1.7663627 0.77469885 8.1074056e-39
-0.42289409 -1.7663627 0.77469885 8.1074042e-39
-0.41772091 -1.7663627 0.77469885 8.1992411e-39
-0.41254774 -1.7663627 0.77469885 8.1995985e-39
-0.4073745 -1.7663625 0.77469891 8.291434e-39
-0.40220132 -1.7663625 0.77469891 8.2914326e-39
-0.39702815 -1.7663625 0.77469891 8.3832681e-39
-0.39185497 -1.7663625 0.77469891 8.2910724e-39
-0.3866818 -1.7663625 0.77469891 8.1992369e-39
-0.38323301 -1.7663625 0.77469891 8.1070413e-39
-0.37805977 -1.7663625 0.77469891 8.0144883e-39
-0.3728866 -1.7663624 0.77469897 7.9226528e-39
-0.36771342 -1.7663624 0.77469897 7.9226528e-39
-0.36254019 -1.7663624 0.77469897 7.9230144e-39
-0.35736701 -1.7663624 0.77469897 8.0148499e-39
-0.35219383 -1.7663624 0.77469897 8.01521e-39
-0.34702066 -1.7663624 0.77469897 8.0148485e-39
-0.34184748 -1.7663624 0.77469897 8.0148471e-39
-0.33839864 -1.7663623 0.77469903 8.1066798e-39
-0.33322546 -1.7663623 0.77469903 8.0148443e-39
-0.32805228 -1.7663623 0.77469903 8.0148471e-39
-0.32287911 -1.7663623 0.77469903 7.9230116e-39
-0.31770593 -1.7663623 0.77469903 7.923013e-39
-0.31425714 -1.7663623 0.77469903 8.0148499e-39
-0.11250281 -1.7663618 0.77469921 7.9233787e-39
-0.10732962 -1.7663618 0.77469921 8.0155758e-39
-0.10215645 -1.7663618 0.77469921 8.0159345e-39
-0.096983254 -1.7663618 0.77469927 8.0155744e-39
-0.091810063 -1.7663618 0.77469927 8.015573e-39
-0.086636879 -1.7663618 0.77469927 8.0155715e-39
-0.083188094 -1.7663618 0.77469927 8.0155715e-39
0.1133929 -1.7663611 0.77469963 7.9241018e-39
0.11684169 -1.7663611 0.77469963 8.0159373e-39
0.12201487 -1.766361 0.77469969 8.0159359e-39
0.12718804 -1.766361 0.77469969 8.0159345e-39
0.13236123 -1.766361 0.77469969 8.015573e-39
0.13753441 -1.766361 0.77469969 8.0152128e-39
0.14270759 -1.766361 0.77469969 8.0152128e-39
0.14788078 -1.766361 0.77469969 8.015573e-39
0.15305395 -1.766361 0.77469969 8.015573e-39
0.15822713 -1.766361 0.77469975 8.0159331e-39
0.16167592 -1.766361 0.77469975 8.0159345e-39
0.16684911 -1.766361 0.77469975 8.015573e-39
0.17202228 -1.766361 0.77469975 8.015573e-39
0.17719546 -1.766361 0.77469975 8.0152114e-39
0.18236865 -1.766361 0.77469975 8.01521e-39
0.18754181 -1.7663609 0.77469981 7.9230158e-39
0.192715 -1.7663609 0.77469981 7.9233787e-39
0.19788818 -1.7663609 0.77469981 7.9237389e-39
0.2478956 -1.7663608 0.77469987 7.831546e-39
0.25306877 -1.7663606 0.77469993 7.8319062e-39
0.25824195 -1.7663606 0.77469993 7.8319062e-39
0.26169074 -1.7663606 0.77469993 7.831546e-39
0.26686391 -1.7663605 0.77469993 7.7393518e-39
0.27203709 -1.7663605 0.77469993 7.6475163e-39
0.27721027 -1.7663605 0.77469993 7.6475177e-39
0.28238344 -1.7663605 0.77469993 7.5553221e-39
0.28755662 -1.7663605 0.77469993 7.3712895e-39
0.29272979 -1.7663605 0.77469993 7.3709294e-39
0.29790297 -1.7663605 0.77469993 7.3709294e-39
0.30307615 -1.7663605 0.77469993 7.4631264e-39
0.30824932 -1.7663605 0.77469993 7.4631264e-39
0.3134225 -1.7663604 0.77469999 7.5553235e-39
0.31687129 -1.7663604 0.77469999 7.647159e-39
0.32204446 -1.7663604 0.77469999 7.6475177e-39
0.32721764 -1.7663603 0.77470005 7.7393532e-39
