# .PCD v0.7 - Point Cloud Data file format
VERSION 0.7
FIELDS x y z rgb
SIZE 4 4 4 4
TYPE F F F F
COUNT 1 1 1 1
WIDTH 87
HEIGHT 1
VIEWPOINT 0 0 0 1 0 0 0
POINTS 87
DATA ascii
-0.7468946 -1.847578 0.83290201 1.2447129e-38
-0.74160433 -1.8475788 0.83290166 1.2723714e-38
-0.73807746 -1.8475792 0.83290148 1.2815551e-38
-0.73278713 -1.84758 0.83290118 1.281591e-38
-0.76671594 -1.8388463 0.8329047 1.2723716e-38
-0.76320308 -1.8388472 0.8329044 1.2815551e-38
-0.75793386 -1.8388485 0.83290374 1.2999582e-38
-0.75266463 -1.8388498 0.83290321 1.2999941e-38
-0.74739534 -1.8388511 0.83290261 1.2999941e-38
-0.74212611 -1.8388524 0.83290201 1.2999941e-38
-0.73685658 -1.838853 0.83290172 1.2999581e-38
-0.78288329 -1.8301833 0.83290714 1.2631161e-38
-0.77763468 -1.8301845 0.8329066 1.2907746e-38
-0.77238595 -1.8301859 0.83290601 1.2999941e-38
-0.76713735 -1.8301872 0.83290541 1.2999581e-38
-0.76188862 -1.8301885 0.83290482 1.2907746e-38
-0.75663996 -1.8301898 0.83290422 1.2999581e-38
-0.75314087 -1.8301908 0.83290386 1.2999581e-38
-0.74789214 -1.8301921 0.83290327 1.3091775e-38
-0.74264348 -1.8301934 0.83290267 1.3183612e-38
-0.73739469 -1.8301945 0.83290219 1.3091775e-38
-0.79195499 -1.8215917 0.8329078 1.3091778e-38
-0.78846872 -1.8215909 0.83290815 1.3183972e-38
-0.7832402 -1.8215916 0.8329078 1.3091777e-38
-0.77801198 -1.8215929 0.8329072 1.3183611e-38
-0.77278376 -1.8215942 0.83290666 1.3091417e-38
-0.76755548 -1.8215955 0.83290607 1.2907385e-38
-0.76232719 -1.8215969 0.83290553 1.2722996e-38
-0.75709891 -1.8215982 0.83290488 1.2722996e-38
-0.75187063 -1.8215992 0.8329044 1.2723354e-38
-0.78185898 -1.8130682 0.83290768 1.3183971e-38
-0.77838659 -1.8130683 0.83290768 1.3183971e-38
-0.77317834 -1.8130691 0.83290732 1.3183611e-38
-0.77702987 -1.8046117 0.83290708 1.2907385e-38
-0.77184123 -1.8046113 0.8329072 1.299958e-38
-0.77223778 -1.7962199 0.8329066 1.2722994e-38
-0.76706898 -1.7962193 0.83290678 1.2631159e-38
-0.7674824 -1.7878923 0.83290601 1.2446769e-38
-0.76233321 -1.7878916 0.83290637 1.2446767e-38
-0.76276332 -1.7796285 0.83290541 1.2354572e-38
-0.7593435 -1.7796277 0.83290577 1.2354572e-38
-0.78300923 -1.7079756 0.83290917 1.1708842e-38
-0.79816723 -1.700304 0.8329109 6.3614971e-39
-0.79322654 -1.7003042 0.83291078 8.113214e-39
-0.78828585 -1.7003043 0.83291066 1.0049321e-38
-0.7820406 -1.6926954 0.83290935 1.1340418e-38
-0.77711803 -1.6926955 0.83290923 1.0325908e-38
-0.77257127 -1.6851423 0.83290768 8.3898009e-39
-0.75792879 -1.6554613 0.83290654 8.2976039e-39
-0.76316321 -1.6481708 0.8329078 1.1524091e-38
-0.75834596 -1.6481702 0.83290815 1.0602496e-38
-0.77316034 -1.6409328 0.83290881 1.2354213e-38
-0.76836026 -1.6409323 0.83290911 1.2262016e-38
-0.77830333 -1.6337457 0.83291018 1.2354573e-38
-0.78817594 -1.62661 0.83291113 1.2631159e-38
-0.78182137 -1.6266096 0.83291149 1.2538963e-38
-0.77705574 -1.6266099 0.83291125 1.2446767e-38
-0.79164743 -1.6195259 0.83291167 1.299958e-38
-0.78689891 -1.6195267 0.83291131 1.281555e-38
-0.78215027 -1.6195273 0.83291101 1.2631159e-38
-0.77740169 -1.6195279 0.83291066 1.2538963e-38
-0.7726531 -1.6195288 0.8329103 1.2354573e-38
-0.76790458 -1.6195295 0.83291 1.2354573e-38
-0.78247714 -1.6124952 0.83291042 1.2723354e-38
-0.77774525 -1.6124958 0.83291006 1.2722994e-38
-0.77301335 -1.6124966 0.8329097 1.2538963e-38
-0.7667042 -1.6124976 0.83290923 1.2446767e-38
-0.76197219 -1.612498 0.83290899 1.2446767e-38
-0.75724006 -1.6124983 0.83290887 1.2446409e-38
-0.76708388 -1.6055144 0.83290869 1.2538963e-38
-0.76236838 -1.6055148 0.83290851 1.2538963e-38
-0.75765288 -1.605515 0.83290851 1.2538604e-38
-0.75293726 -1.6055151 0.83290845 1.2538604e-38
-0.76276183 -1.5985802 0.83290815 1.2631159e-38
-0.75806248 -1.5985799 0.83290839 1.2538964e-38
-0.76159096 -1.5916927 0.83290839 1.2723354e-38
-0.75690794 -1.5916924 0.83290857 1.2722994e-38
-0.76198375 -1.5848532 0.83290857 1.281519e-38
-0.75731695 -1.5848528 0.83290881 1.2723354e-38
-0.76237381 -1.578061 0.83290875 1.2722994e-38
-0.75772321 -1.5780606 0.83290899 1.2722994e-38
-0.76276124 -1.5713155 0.83290893 1.2907385e-38
-0.75658172 -1.5713148 0.83290923 1.2907385e-38
-0.76314604 -1.5646163 0.83290911 1.3091778e-38
-0.75698769 -1.5646157 0.83290941 1.3091777e-38
-0.76199377 -1.5579628 0.83290941 1.2539325e-38
0.089210711 -1.5065392 0.83279854 8.6473147e-40
