# .PCD v0.7 - Point Cloud Data file format
VERSION 0.7
FIELDS x y z rgb
SIZE 4 4 4 4
TYPE F F F F
COUNT 1 1 1 1
WIDTH 1015
HEIGHT 1
VIEWPOINT 0 0 0 1 0 0 0
POINTS 1015
DATA ascii
-0.34704155 -1.5550915 0.7746982 7.9237403e-39
-0.34237012 -1.5550915 0.7746982 7.9237389e-39
-0.3376987 -1.5550914 0.77469826 7.9237389e-39
-0.33302727 -1.5550914 0.77469826 7.924099e-39
-0.32679877 -1.5550914 0.77469826 8.0162974e-39
-0.32212734 -1.5550914 0.77469826 8.0162988e-39
-0.31745592 -1.5550914 0.77469826 8.0163002e-39
-0.31278449 -1.5550913 0.77469832 8.0163002e-39
-0.30811307 -1.5550913 0.77469832 7.9241032e-39
-0.30188453 -1.5550913 0.77469832 7.8315446e-39
-0.29721314 -1.5550913 0.77469832 7.8315432e-39
-0.29254171 -1.5550913 0.77469832 7.831546e-39
-0.28787029 -1.5550913 0.77469832 7.9237417e-39
-0.28319886 -1.5550913 0.77469832 7.9241004e-39
-0.2769703 -1.5550911 0.77469838 8.0159359e-39
-0.27229893 -1.5550911 0.77469838 8.1077714e-39
-0.26762751 -1.5550911 0.77469838 8.1077728e-39
-0.26295608 -1.5550911 0.77469838 8.0162974e-39
-0.25828466 -1.5550911 0.77469838 8.0159373e-39
-0.25205609 -1.555091 0.77469844 8.0159345e-39
-0.24738471 -1.5550911 0.77469838 8.1081343e-39
-0.24271329 -1.5550911 0.77469838 8.1084959e-39
-0.23804189 -1.5550911 0.77469838 8.1081343e-39
-0.23337047 -1.555091 0.77469844 8.1077714e-39
-0.22714192 -1.555091 0.77469844 8.1077686e-39
-0.22247051 -1.555091 0.77469844 8.1077686e-39
-0.2177991 -1.555091 0.77469844 8.10777e-39
-0.21157053 -1.5550909 0.7746985 8.0159345e-39
-0.20689912 -1.5550909 0.7746985 8.0155744e-39
-0.20222771 -1.5550909 0.7746985 7.9237375e-39
-0.19755632 -1.555091 0.77469844 7.9237375e-39
-0.19288489 -1.5550909 0.7746985 7.9233787e-39
-0.18665633 -1.5550909 0.7746985 7.9233773e-39
-0.18198493 -1.5550909 0.7746985 7.9237389e-39
-0.17731351 -1.5550908 0.77469856 7.9237403e-39
-0.1726421 -1.5550908 0.77469856 8.0159373e-39
-0.16797069 -1.5550908 0.77469856 8.0159373e-39
-0.16174214 -1.5550908 0.77469856 8.1081329e-39
-0.15707073 -1.5550908 0.77469856 8.1084917e-39
-0.1523993 -1.5550908 0.77469862 8.1081329e-39
-0.14772791 -1.5550908 0.77469856 8.0162974e-39
-0.14305648 -1.5550908 0.77469856 8.0159345e-39
-0.13682795 -1.5550908 0.77469862 7.8315446e-39
-0.13215652 -1.5550908 0.77469862 7.8315446e-39
-0.12748513 -1.5550908 0.77469862 7.739349e-39
-0.1228137 -1.5550908 0.77469862 7.6475149e-39
-0.11814231 -1.5550908 0.77469862 7.647875e-39
-0.11191374 -1.5550907 0.77469862 7.7397119e-39
-0.10724233 -1.5550907 0.77469867 7.8319062e-39
-0.10257092 -1.5550907 0.77469867 7.9237417e-39
-0.097899511 -1.5550907 0.77469867 7.9237403e-39
-0.093228102 -1.5550907 0.77469867 7.9233787e-39
-0.086999558 -1.5550907 0.77469867 7.9233773e-39
-0.082328148 -1.5550907 0.77469867 8.0155744e-39
-0.077656731 -1.5550907 0.77469873 8.0155744e-39
-0.072985321 -1.5550905 0.77469873 8.0155744e-39
-0.068313912 -1.5550905 0.77469873 8.015573e-39
0.096742526 -1.55509 0.77469903 8.0155744e-39
0.10297106 -1.55509 0.77469903 8.0159345e-39
0.10764247 -1.55509 0.77469903 8.0159345e-39
0.11231388 -1.55509 0.77469903 7.8315446e-39
0.11698529 -1.55509 0.77469903 7.8311817e-39
0.12165669 -1.55509 0.77469909 7.830823e-39
0.12788522 -1.55509 0.77469909 7.8311845e-39
0.13255665 -1.55509 0.77469909 7.9237417e-39
0.13722804 -1.55509 0.77469909 7.9241018e-39
0.14189945 -1.55509 0.77469909 7.9244633e-39
0.14657086 -1.55509 0.77469909 7.9244647e-39
0.1527994 -1.55509 0.77469909 7.9241046e-39
0.15747081 -1.55509 0.77469909 7.9241032e-39
0.16214222 -1.55509 0.77469909 7.9241032e-39
0.16837075 -1.55509 0.77469909 8.0162988e-39
0.17304216 -1.5550898 0.77469909 8.0163002e-39
0.17771357 -1.5550898 0.77469909 8.0163002e-39
0.18238497 -1.5550898 0.77469909 7.9248249e-39
0.18705638 -1.5550897 0.77469909 7.9248263e-39
0.1932849 -1.5550897 0.77469915 8.0166632e-39
0.19795632 -1.5550897 0.77469915 8.0166618e-39
0.20262772 -1.5550897 0.77469915 8.1081343e-39
0.20729913 -1.5550897 0.77469915 8.1081329e-39
0.24467035 -1.5550895 0.77469927 8.0159387e-39
0.24778463 -1.5550895 0.77469927 8.0159373e-39
0.25245604 -1.5550896 0.77469921 7.9237403e-39
0.25712746 -1.5550896 0.77469921 7.9237389e-39
0.26179886 -1.5550895 0.77469921 7.9233801e-39
0.2680274 -1.5550895 0.77469927 7.9233801e-39
0.27269876 -1.5550895 0.77469927 7.9233815e-39
0.27737018 -1.5550895 0.77469927 7.9237403e-39
0.28204161 -1.5550895 0.77469927 7.9237417e-39
0.286713 -1.5550895 0.77469933 7.9237417e-39
0.29761297 -1.5550894 0.77469933 7.9241032e-39
0.30228433 -1.5550894 0.77469933 7.9244633e-39
0.30695575 -1.5550894 0.77469933 7.9244647e-39
0.31162715 -1.5550894 0.77469933 7.9244633e-39
0.31785569 -1.5550892 0.77469933 7.9241046e-39
0.32252711 -1.5550894 0.77469933 7.9241046e-39
0.32719848 -1.5550892 0.77469939 7.9241046e-39
0.33342704 -1.5550892 0.77469939 7.924106e-39
0.33809841 -1.5550892 0.77469939 7.9244661e-39
0.34276983 -1.5550892 0.77469939 7.9244647e-39
0.34744126 -1.5550892 0.77469939 7.924106e-39
0.35211265 -1.5550892 0.77469939 7.9244647e-39
0.35834119 -1.5550892 0.77469939 7.8322705e-39
0.36301255 -1.5550891 0.77469945 7.8322691e-39
0.36768398 -1.5550892 0.77469945 7.7400721e-39
0.3723554 -1.5550891 0.77469945 7.7397133e-39
0.37702677 -1.5550891 0.77469945 7.7397133e-39
0.38325533 -1.5550891 0.77469945 7.7397133e-39
0.3879267 -1.5550891 0.77469951 7.7397119e-39
0.39259812 -1.5550891 0.77469945 7.739349e-39
0.39726949 -1.5550891 0.77469951 7.739349e-39
0.40194091 -1.5550891 0.77469951 7.8315446e-39
0.40816948 -1.5550891 0.77469951 7.8319062e-39
0.41284084 -1.5550891 0.77469951 7.8322677e-39
0.41751227 -1.5550891 0.77469951 7.7397119e-39
0.42218363 -1.555089 0.77469957 7.6475149e-39
0.42685506 -1.555089 0.77469957 7.6467932e-39
0.43308359 -1.555089 0.77469957 7.6464317e-39
0.43775499 -1.555089 0.77469957 7.7386273e-39
0.44242641 -1.555089 0.77469957 7.8311831e-39
0.44709778 -1.5550889 0.77469963 7.8315432e-39
0.4517692 -1.555089 0.77469957 7.8311845e-39
0.45799774 -1.555089 0.77469957 7.9230172e-39
0.46266913 -1.5550889 0.77469963 7.9230158e-39
0.46734053 -1.555089 0.77469957 7.8311803e-39
0.47201192 -1.5550889 0.77469963 7.8311831e-39
0.47668335 -1.5550889 0.77469963 7.8315446e-39
0.48291185 -1.5550889 0.77469963 7.8319076e-39
0.48758328 -1.5550889 0.77469963 7.8315474e-39
0.49225467 -1.5550888 0.77469969 7.7393504e-39
0.49692607 -1.5550888 0.77469969 7.7389875e-39
0.50159746 -1.5550888 0.77469969 7.6467904e-39
0.50782597 -1.5550888 0.77469969 7.7386273e-39
0.51249737 -1.5550888 0.77469969 7.8311831e-39
0.51716876 -1.5550888 0.77469969 7.8315446e-39
0.52339733 -1.5550888 0.77469969 7.9237403e-39
0.52806872 -1.5550886 0.77469975 7.9237389e-39
0.53274012 -1.5550886 0.77469975 7.9233801e-39
0.53741151 -1.5550886 0.77469975 7.8315446e-39
0.54208291 -1.5550886 0.77469975 7.9233801e-39
0.54831147 -1.5550885 0.77469981 7.9237389e-39
0.55298287 -1.5550886 0.77469975 8.0155744e-39
0.55765426 -1.5550886 0.77469975 8.0155744e-39
0.56232566 -1.5550885 0.77469981 8.10777e-39
0.56699705 -1.5550885 0.77469981 8.0159345e-39
0.57322562 -1.5550885 0.77469981 7.9233787e-39
0.57789701 -1.5550885 0.77469981 7.8315432e-39
0.58256841 -1.5550885 0.77469981 7.9233801e-39
0.5872398 -1.5550885 0.77469981 7.9233801e-39
0.5919112 -1.5550884 0.77469987 7.8311831e-39
0.59813964 -1.5550884 0.77469987 7.8311831e-39
0.60281116 -1.5550885 0.77469981 7.831546e-39
0.60748249 -1.5550884 0.77469987 7.8319062e-39
0.61215389 -1.5550884 0.77469987 7.9237431e-39
0.61682534 -1.5550884 0.77469987 7.9241046e-39
0.62305379 -1.5550883 0.77469993 7.9248277e-39
0.62772518 -1.5550883 0.77469993 7.9241046e-39
0.63239658 -1.5550883 0.77469993 7.8311845e-39
0.63706803 -1.5550883 0.77469993 7.8311817e-39
0.64173937 -1.5550883 0.77469993 7.8311817e-39
0.64796793 -1.5550883 0.77469993 7.9237417e-39
0.65263933 -1.5550883 0.77469993 8.0163002e-39
0.65731072 -1.5550883 0.77469993 8.0162988e-39
0.66198218 -1.5550883 0.77469993 8.0162974e-39
0.66665351 -1.5550883 0.77469993 7.9237417e-39
0.67288208 -1.5550883 0.77469999 7.8315446e-39
0.67755347 -1.5550883 0.77469999 7.9237417e-39
0.68222487 -1.5550883 0.77469999 7.9237431e-39
0.68689626 -1.5550883 0.77469999 7.9237445e-39
0.69156766 -1.5550883 0.77470005 7.9241018e-39
0.69779611 -1.5550883 0.77470005 7.9237403e-39
0.70246756 -1.5550883 0.77470005 7.9237389e-39
0.70713896 -1.5550883 0.77470005 8.0155744e-39
0.71336746 -1.5550883 0.77470005 8.1074084e-39
0.71803886 -1.5550882 0.77470011 8.1074084e-39
0.72271025 -1.5550883 0.77470005 8.015573e-39
0.72738165 -1.5550882 0.77470011 7.9237403e-39
0.73205304 -1.5550882 0.77470011 7.8319048e-39
0.73828161 -1.5550882 0.77470011 7.8319048e-39
0.742953 -1.5550882 0.77470011 7.9241018e-39
0.74762434 -1.555088 0.77470016 7.9241032e-39
0.75229579 -1.5550882 0.77470011 8.0162988e-39
0.75696719 -1.5550882 0.77470011 7.9241032e-39
0.76319569 -1.555088 0.77470016 7.8319062e-39
0.76786709 -1.555088 0.77470016 7.831546e-39
0.77253848 -1.555088 0.77470016 7.831546e-39
0.77720988 -1.555088 0.77470016 7.9237417e-39
0.78188127 -1.555088 0.77470016 7.9237417e-39
0.78810978 -1.555088 0.77470016 8.0159373e-39
0.79278117 -1.5550879 0.77470022 8.0159359e-39
0.79745257 -1.5550879 0.77470022 8.0159373e-39
0.80212396 -1.5550879 0.77470022 8.0162988e-39
0.80679536 -1.5550879 0.77470022 8.016659e-39
0.81302392 -1.5550879 0.77470022 8.1084959e-39
0.81769532 -1.5550879 0.77470022 8.1084945e-39
0.8223666 -1.5550878 0.77470028 8.1081343e-39
0.82703805 -1.5550878 0.77470028 8.1081357e-39
0.83170944 -1.5550878 0.77470028 8.1084945e-39
0.83793795 -1.5550878 0.77470028 8.0159387e-39
0.84260935 -1.5550878 0.77470028 7.9237403e-39
0.84728074 -1.5550878 0.77470028 7.9237403e-39
0.8519522 -1.5550878 0.77470028 7.8319062e-39
0.85662353 -1.5550878 0.77470028 7.9241018e-39
0.8628521 -1.5550878 0.77470028 7.9241032e-39
0.86752343 -1.5550877 0.77470034 7.9241018e-39
0.87219489 -1.5550877 0.77470034 7.9237403e-39
0.87842339 -1.5550877 0.77470034 7.9237389e-39
0.88309479 -1.5550877 0.77470034 7.9237403e-39
0.88776618 -1.5550877 0.77470034 8.0159359e-39
0.89243752 -1.5550876 0.7747004 8.0162974e-39
0.89710891 -1.5550876 0.7747004 8.0162988e-39
0.90333748 -1.5550876 0.7747004 8.0163002e-39
0.90800887 -1.5550876 0.7747004 8.0162988e-39
0.91268027 -1.5550876 0.7747004 7.9241018e-39
-0.91237652 -1.548754 0.77469742 7.8319062e-39
-0.90772009 -1.548754 0.77469742 7.8319062e-39
-0.90306377 -1.548754 0.77469742 7.8319076e-39
-0.89685524 -1.548754 0.77469742 7.9241032e-39
-0.89219892 -1.548754 0.77469742 7.9241046e-39
-0.88754255 -1.548754 0.77469742 7.9244633e-39
-0.88288617 -1.548754 0.77469742 7.9244647e-39
-0.87822986 -1.548754 0.77469742 7.9244661e-39
-0.87202132 -1.5487539 0.77469748 7.9244661e-39
-0.86736494 -1.5487539 0.77469748 7.9248249e-39
-0.86270857 -1.5487539 0.77469748 7.9244661e-39
-0.85805219 -1.5487539 0.77469748 8.0163016e-39
-0.85339582 -1.5487539 0.77469748 7.9244647e-39
-0.8471874 -1.5487539 0.77469748 7.9241046e-39
-0.84253103 -1.5487539 0.77469748 7.9241046e-39
-0.83787465 -1.5487537 0.77469754 7.8319076e-39
-0.83166611 -1.5487537 0.77469754 7.8315474e-39
-0.82700974 -1.5487537 0.77469754 7.8315474e-39
-0.82235336 -1.5487537 0.77469754 7.7393518e-39
-0.81769699 -1.5487537 0.77469754 7.7393504e-39
-0.81304061 -1.5487537 0.77469754 7.7393504e-39
-0.80683219 -1.5487537 0.77469754 7.831546e-39
-0.80217582 -1.5487537 0.77469754 7.8319076e-39
-0.79751939 -1.5487536 0.7746976 7.8322677e-39
-0.79286301 -1.5487536 0.7746976 7.8322677e-39
-0.7882067 -1.5487536 0.7746976 7.6475177e-39
-0.78199816 -1.5487536 0.7746976 7.6475149e-39
-0.77734184 -1.5487536 0.7746976 7.7393504e-39
-0.77268547 -1.5487536 0.7746976 7.739349e-39
-0.76802909 -1.5487536 0.7746976 7.8311845e-39
-0.76337278 -1.5487536 0.7746976 7.8311845e-39
-0.75716424 -1.5487536 0.7746976 7.8311845e-39
-0.75250793 -1.5487536 0.7746976 7.8315432e-39
-0.74785155 -1.5487536 0.7746976 7.9233801e-39
-0.74164307 -1.5487536 0.7746976 7.9237403e-39
-0.7369867 -1.5487536 0.7746976 7.9237417e-39
-0.73388243 -1.5487535 0.77469766 7.9237417e-39
-0.66558909 -1.5487534 0.77469772 7.9237417e-39
-0.66248482 -1.5487534 0.77469772 7.8319048e-39
-0.65782845 -1.5487534 0.77469772 7.9237417e-39
-0.65162003 -1.5487534 0.77469772 7.9237417e-39
-0.6469636 -1.5487534 0.77469778 7.9233801e-39
-0.64230728 -1.5487534 0.77469778 7.8311845e-39
-0.63765091 -1.5487534 0.77469778 7.9233815e-39
-0.63299453 -1.5487534 0.77469778 7.9237417e-39
-0.62678605 -1.5487534 0.77469778 7.8311845e-39
-0.62212968 -1.5487534 0.77469778 7.8311817e-39
-0.61747336 -1.5487534 0.77469778 7.8311845e-39
-0.61281699 -1.5487534 0.77469778 7.9237403e-39
-0.60816061 -1.5487534 0.77469778 7.9237403e-39
-0.60195214 -1.5487534 0.77469778 7.9241032e-39
-0.59729576 -1.5487534 0.77469778 7.9244661e-39
-0.59263939 -1.5487533 0.77469784 7.9241046e-39
-0.58798301 -1.5487533 0.77469784 7.831546e-39
-0.5833267 -1.5487533 0.77469784 7.8311831e-39
-0.57711816 -1.5487533 0.77469784 7.8311831e-39
-0.57246184 -1.5487533 0.77469784 7.9237403e-39
-0.56780547 -1.5487533 0.77469784 8.0159373e-39
-0.56159699 -1.5487533 0.7746979 8.0159373e-39
-0.55694056 -1.5487531 0.7746979 7.9241004e-39
-0.55228424 -1.5487531 0.7746979 7.9237403e-39
-0.54762787 -1.5487531 0.7746979 7.9237389e-39
-0.54297149 -1.5487533 0.7746979 7.9237403e-39
-0.53676307 -1.5487533 0.77469784 7.9241018e-39
-0.5321067 -1.5487533 0.77469784 7.9241018e-39
-0.52745032 -1.5487531 0.7746979 7.9241018e-39
-0.52279395 -1.5487531 0.7746979 7.9237417e-39
-0.51813757 -1.5487531 0.7746979 7.9233801e-39
-0.51192915 -1.5487531 0.7746979 7.9237389e-39
-0.50727278 -1.5487531 0.7746979 8.0155758e-39
-0.50261641 -1.5487531 0.7746979 8.0159373e-39
-0.49796003 -1.5487531 0.7746979 8.0159387e-39
-0.49330366 -1.548753 0.7746979 8.0159359e-39
-0.48709518 -1.548753 0.7746979 8.0159359e-39
-0.4824388 -1.548753 0.77469796 8.0159359e-39
-0.47778249 -1.548753 0.7746979 8.016296e-39
-0.47157398 -1.548753 0.77469796 8.0162988e-39
-0.46691763 -1.548753 0.77469796 8.0163002e-39
-0.46226126 -1.548753 0.77469796 8.0162988e-39
-0.45760489 -1.548753 0.77469796 7.9241032e-39
-0.45294854 -1.548753 0.77469802 7.9237417e-39
-0.44674003 -1.5487529 0.77469802 7.9241018e-39
-0.44208366 -1.5487529 0.77469802 7.9241032e-39
-0.43742731 -1.5487529 0.77469802 7.9241046e-39
-0.43277097 -1.5487529 0.77469802 8.0159401e-39
-0.42811462 -1.5487529 0.77469802 8.0159359e-39
-0.42190614 -1.5487529 0.77469802 8.0155772e-39
-0.4172498 -1.5487529 0.77469802 8.0162988e-39
-0.41259342 -1.5487529 0.77469802 8.1084945e-39
-0.40793705 -1.5487528 0.77469808 8.1084945e-39
-0.40328068 -1.5487528 0.77469808 8.1084931e-39
-0.3970722 -1.5487528 0.77469808 8.199967e-39
-0.39241582 -1.5487528 0.77469808 8.199967e-39
-0.38775948 -1.5487528 0.77469814 8.1081315e-39
-0.38310307 -1.5487527 0.77469814 8.0159373e-39
-0.37844676 -1.5487528 0.77469808 7.9237417e-39
-0.37223825 -1.5487527 0.77469814 7.9237417e-39
-0.3675819 -1.5487527 0.77469814 7.9237417e-39
-0.36292553 -1.5487527 0.77469814 7.9237417e-39
-0.35671708 -1.5487525 0.77469814 7.9241032e-39
-0.35206068 -1.5487525 0.7746982 7.9237417e-39
-0.34740433 -1.5487525 0.7746982 7.9237403e-39
-0.34274799 -1.5487525 0.7746982 7.9237417e-39
-0.33809161 -1.5487525 0.7746982 7.9241018e-39
-0.33188313 -1.5487525 0.7746982 7.9241032e-39
-0.32722676 -1.5487525 0.7746982 7.9241032e-39
-0.32257041 -1.5487525 0.7746982 7.9241018e-39
-0.31791407 -1.5487525 0.7746982 7.9241018e-39
-0.31325769 -1.5487525 0.7746982 8.0159373e-39
-0.30704921 -1.5487524 0.77469826 7.9237403e-39
-0.30239284 -1.5487524 0.77469826 7.8315446e-39
-0.2977365 -1.5487524 0.77469826 7.8311859e-39
-0.29308015 -1.5487524 0.77469826 7.9241018e-39
-0.28842378 -1.5487524 0.77469826 8.0159373e-39
-0.2822153 -1.5487524 0.77469826 8.0159345e-39
-0.27755892 -1.5487524 0.77469832 8.1081301e-39
-0.27290258 -1.5487524 0.77469832 8.1084917e-39
-0.2666941 -1.5487524 0.77469832 8.199967e-39
-0.26203775 -1.5487524 0.77469832 8.199967e-39
-0.25738138 -1.5487523 0.77469838 8.1077728e-39
-0.25272501 -1.5487523 0.77469838 8.1077714e-39
-0.24806866 -1.5487523 0.77469838 8.1081329e-39
-0.24186018 -1.5487523 0.77469838 8.1081343e-39
-0.23720382 -1.5487523 0.77469838 8.1081315e-39
-0.23254748 -1.5487523 0.77469838 8.0159331e-39
-0.22789112 -1.5487523 0.77469838 8.0155744e-39
-0.22323476 -1.5487523 0.77469838 8.015573e-39
-0.21702628 -1.5487523 0.77469838 8.015573e-39
-0.21236992 -1.5487523 0.77469838 8.0155744e-39
-0.20771354 -1.5487522 0.77469844 8.0155744e-39
-0.2030572 -1.5487522 0.77469844 8.0155744e-39
-0.19840084 -1.5487522 0.77469844 8.0155744e-39
-0.19219236 -1.5487522 0.77469844 8.015573e-39
-0.187536 -1.5487521 0.7746985 8.015573e-39
-0.18287966 -1.5487521 0.7746985 8.1074084e-39
-0.17667118 -1.5487521 0.7746985 8.1074084e-39
-0.17201482 -1.5487521 0.7746985 8.1077686e-39
-0.16735846 -1.5487521 0.7746985 8.10777e-39
-0.1627021 -1.5487521 0.7746985 8.1077714e-39
-0.15804574 -1.5487521 0.7746985 8.1081301e-39
-0.15183726 -1.5487521 0.7746985 8.1081315e-39
-0.1471809 -1.548752 0.77469856 8.0159373e-39
-0.14252454 -1.548752 0.77469856 8.0155758e-39
-0.1378682 -1.548752 0.77469856 7.9233801e-39
-0.13321184 -1.548752 0.77469856 7.9233801e-39
-0.12700337 -1.548752 0.77469856 7.831546e-39
-0.12234701 -1.548752 0.77469856 7.831546e-39
-0.11769065 -1.548752 0.77469856 7.7397105e-39
-0.11303429 -1.5487518 0.77469862 7.8319076e-39
-0.10837793 -1.5487518 0.77469862 7.831909e-39
-0.10216945 -1.5487518 0.77469862 7.8319076e-39
-0.097513109 -1.5487518 0.77469862 7.8319076e-39
-0.09285675 -1.5487518 0.77469862 7.9237431e-39
-0.08664827 -1.5487518 0.77469862 7.9241018e-39
-0.081991918 -1.5487517 0.77469867 7.9241018e-39
-0.077335566 -1.5487517 0.77469867 7.9237403e-39
-0.072679207 -1.5487517 0.77469867 7.9237375e-39
-0.068022855 -1.5487517 0.77469867 7.9237375e-39
-0.063366503 -1.5487517 0.77469867 8.0155744e-39
0.093397416 -1.5487514 0.77469885 7.9233801e-39
0.098053761 -1.5487512 0.77469891 7.9237431e-39
0.10271011 -1.5487512 0.77469891 7.9241032e-39
0.10736647 -1.5487512 0.77469891 7.9241032e-39
0.11202282 -1.5487511 0.77469897 7.8319062e-39
0.11823129 -1.5487511 0.77469897 7.7389903e-39
0.12288765 -1.5487512 0.77469891 7.8311859e-39
0.12754399 -1.5487511 0.77469897 7.8319062e-39
0.13220035 -1.5487511 0.77469897 7.9241018e-39
0.13685669 -1.5487511 0.77469897 7.9241032e-39
0.14306517 -1.5487511 0.77469897 7.8326278e-39
0.14772151 -1.548751 0.77469909 7.8326306e-39
0.15237786 -1.548751 0.77469909 7.8326306e-39
0.15703422 -1.548751 0.77469909 7.9244675e-39
0.16169056 -1.548751 0.77469909 7.9244675e-39
0.16789904 -1.548751 0.77469909 7.9244661e-39
0.17255539 -1.548751 0.77469909 7.9244647e-39
0.17721173 -1.548751 0.77469909 7.924106e-39
0.18342021 -1.5487509 0.77469909 7.9244689e-39
0.18807656 -1.548751 0.77469909 7.9248291e-39
0.1927329 -1.5487509 0.77469915 8.0166632e-39
0.19738926 -1.5487509 0.77469915 8.0166632e-39
0.2020456 -1.5487509 0.77469915 8.0163016e-39
0.20670196 -1.5487509 0.77469915 8.0163016e-39
0.24395275 -1.5487508 0.77469921 7.924106e-39
0.24705699 -1.5487508 0.77469921 7.9241046e-39
0.25171334 -1.5487508 0.77469921 7.9241032e-39
0.25792181 -1.5487508 0.77469927 7.9237417e-39
0.26257813 -1.5487508 0.77469927 7.831546e-39
0.2672345 -1.5487508 0.77469927 7.9233815e-39
0.27344298 -1.5487508 0.77469927 7.9233801e-39
0.2780993 -1.5487508 0.77469927 7.8315446e-39
0.29827681 -1.5487506 0.77469933 7.9237431e-39
0.30293316 -1.5487506 0.77469933 7.9241032e-39
0.30758953 -1.5487506 0.77469933 7.8319062e-39
0.31224585 -1.5487506 0.77469933 7.8319076e-39
0.31690222 -1.5487506 0.77469933 7.8319076e-39
0.3231107 -1.5487506 0.77469933 7.9241032e-39
0.32776701 -1.5487505 0.77469939 7.9241046e-39
0.33242339 -1.5487505 0.77469939 7.9244633e-39
0.3370797 -1.5487505 0.77469939 7.9244647e-39
0.34173608 -1.5487505 0.77469939 7.9244661e-39
0.34794456 -1.5487504 0.77469945 7.9244661e-39
0.35260087 -1.5487504 0.77469945 7.9248249e-39
0.35725722 -1.5487504 0.77469945 7.9244661e-39
0.36191356 -1.5487504 0.77469945 8.0163016e-39
0.36656994 -1.5487504 0.77469945 7.9244647e-39
0.37277839 -1.5487504 0.77469945 7.9241046e-39
0.37743473 -1.5487504 0.77469945 7.9241032e-39
0.3820911 -1.5487504 0.77469945 7.8319076e-39
0.38829952 -1.5487504 0.77469945 7.8315474e-39
0.3929559 -1.5487504 0.77469945 7.7397119e-39
0.39761221 -1.5487503 0.77469951 7.7393518e-39
0.40226859 -1.5487503 0.77469951 7.7393504e-39
0.40692493 -1.5487503 0.77469951 7.7393504e-39
0.41313338 -1.5487503 0.77469951 7.831546e-39
0.41778976 -1.5487503 0.77469951 7.831909e-39
0.42244607 -1.5487502 0.77469957 7.8322691e-39
0.42710245 -1.5487503 0.77469951 7.831909e-39
0.43175876 -1.5487502 0.77469957 7.6475163e-39
0.43796724 -1.5487502 0.77469957 7.6475149e-39
0.44262356 -1.5487502 0.77469957 7.7393504e-39
0.44727993 -1.5487502 0.77469957 7.739349e-39
0.4519363 -1.5487502 0.77469957 7.8311845e-39
0.45659262 -1.54875 0.77469963 7.8311845e-39
0.46280107 -1.54875 0.77469963 7.8315432e-39
0.46745741 -1.54875 0.77469963 7.8315432e-39
0.47211379 -1.5487502 0.77469957 7.9233801e-39
0.47832224 -1.54875 0.77469963 7.9237403e-39
0.48297858 -1.54875 0.77469963 7.9237417e-39
0.48763493 -1.54875 0.77469963 7.9237417e-39
0.49229127 -1.54875 0.77469963 7.9237403e-39
0.49694759 -1.5487499 0.77469969 7.8311831e-39
0.50315607 -1.5487499 0.77469969 7.8308202e-39
0.50781244 -1.5487499 0.77469969 7.8308202e-39
0.51246876 -1.5487499 0.77469969 7.830823e-39
0.51712513 -1.5487499 0.77469969 7.9233801e-39
0.52178144 -1.5487499 0.77469969 7.9237403e-39
0.52798986 -1.54875 0.77469975 8.0155744e-39
0.53264624 -1.54875 0.77469975 7.9237389e-39
0.53730261 -1.54875 0.77469975 7.9237403e-39
0.54195893 -1.54875 0.77469975 7.9237417e-39
0.5466153 -1.54875 0.77469975 7.9241018e-39
0.55282372 -1.5487499 0.77469981 7.9237417e-39
0.5574801 -1.5487499 0.77469981 7.8319048e-39
0.56213641 -1.5487499 0.77469981 7.9237417e-39
0.56834489 -1.5487499 0.77469981 7.9237417e-39
0.57300127 -1.5487499 0.77469981 7.8315446e-39
0.57765758 -1.5487499 0.77469981 7.8311845e-39
0.58231395 -1.5487499 0.77469981 7.9233815e-39
0.58697027 -1.5487499 0.77469981 7.9233829e-39
0.59317869 -1.5487498 0.77469987 7.8308244e-39
0.59783506 -1.5487498 0.77469987 7.8311831e-39
0.60249138 -1.5487498 0.77469987 7.9230214e-39
0.60714775 -1.5487498 0.77469987 7.9237403e-39
0.61180413 -1.5487498 0.77469987 7.8319048e-39
0.61801255 -1.5487498 0.77469987 7.9241046e-39
0.62266892 -1.5487498 0.77469987 7.9244661e-39
0.62732518 -1.5487497 0.77469993 7.9241032e-39
0.63198155 -1.5487497 0.77469993 7.8315446e-39
0.63663793 -1.5487497 0.77469993 7.8311831e-39
0.64284635 -1.5487497 0.77469993 7.8311831e-39
0.64750272 -1.5487497 0.77469993 7.9237403e-39
0.65215904 -1.5487496 0.77469999 8.0159373e-39
0.65836751 -1.5487496 0.77469999 8.0159373e-39
0.66302383 -1.5487496 0.77469999 7.9237417e-39
0.6676802 -1.5487496 0.77469999 7.9237403e-39
0.67233652 -1.5487496 0.77469999 7.9237403e-39
0.67699289 -1.5487496 0.77469999 7.9237403e-39
0.68320131 -1.5487494 0.77470005 7.9241018e-39
0.68785763 -1.5487494 0.77470005 7.9241032e-39
0.692514 -1.5487494 0.77470005 7.9237431e-39
0.69717032 -1.5487494 0.77470005 7.9237403e-39
0.70182669 -1.5487494 0.77470005 7.9233801e-39
0.70803511 -1.5487494 0.77470005 7.9237389e-39
0.71269143 -1.5487493 0.77470011 8.0155758e-39
0.71734786 -1.5487494 0.77470005 8.0159373e-39
0.72200418 -1.5487494 0.77470005 8.0159387e-39
0.72666049 -1.5487493 0.77470011 8.0159359e-39
0.73286897 -1.5487494 0.77470005 8.0159359e-39
0.73752528 -1.5487493 0.77470011 8.0159359e-39
0.74218166 -1.5487493 0.77470011 8.016296e-39
0.74839008 -1.5487493 0.77470011 8.0163002e-39
0.75304639 -1.5487492 0.77470016 8.0163002e-39
0.75770271 -1.5487492 0.77470016 8.0162988e-39
0.76235908 -1.5487492 0.77470016 7.9241032e-39
0.76701546 -1.5487492 0.77470016 7.9237417e-39
0.77322388 -1.5487492 0.77470016 7.9241018e-39
0.77788025 -1.5487492 0.77470016 7.9241032e-39
0.78253657 -1.5487492 0.77470016 8.0159401e-39
0.78719288 -1.5487492 0.77470022 8.0159387e-39
0.79184926 -1.5487492 0.77470022 8.0155772e-39
0.79805768 -1.5487492 0.77470022 8.0159359e-39
0.80271405 -1.5487492 0.77470022 8.1081343e-39
0.80737036 -1.5487492 0.77470022 8.1084945e-39
0.81202668 -1.5487491 0.77470022 8.1084945e-39
0.81668305 -1.5487492 0.77470022 8.1084931e-39
0.82289147 -1.5487492 0.77470022 8.199967e-39
0.82754791 -1.5487492 0.77470022 8.199967e-39
0.83220416 -1.5487491 0.77470022 8.1077728e-39
0.83841264 -1.5487491 0.77470022 8.0159373e-39
0.84306896 -1.5487491 0.77470022 7.9237417e-39
0.84772533 -1.5487491 0.77470022 7.9237417e-39
0.85238171 -1.5487491 0.77470022 7.9237417e-39
0.85703796 -1.548749 0.77470028 7.9237431e-39
0.86324644 -1.548749 0.77470028 7.9241032e-39
0.86790276 -1.548749 0.77470028 7.9237417e-39
0.87255913 -1.548749 0.77470028 7.9237403e-39
0.87721545 -1.548749 0.77470028 7.9237417e-39
0.88187182 -1.548749 0.77470028 7.9241018e-39
0.88808024 -1.5487489 0.77470034 7.9241032e-39
0.89273655 -1.5487489 0.77470034 7.9241032e-39
0.89739287 -1.5487489 0.77470034 7.9241018e-39
0.90204924 -1.5487489 0.77470034 7.9241018e-39
0.90670562 -1.5487489 0.77470034 8.0159359e-39
0.91136187 -1.5487487 0.7747004 7.9237417e-39
-0.91246915 -1.5424559 0.77469742 7.7397119e-39
-0.90782773 -1.5424559 0.77469748 7.7397105e-39
-0.90318632 -1.5424559 0.77469748 7.7397105e-39
-0.89699781 -1.5424559 0.77469748 7.831546e-39
-0.8923564 -1.5424559 0.77469748 7.8319062e-39
-0.88771498 -1.5424559 0.77469748 7.8319076e-39
-0.88307357 -1.5424559 0.77469748 7.8322663e-39
-0.87843215 -1.5424559 0.77469748 7.9241032e-39
-0.87224364 -1.5424559 0.77469748 7.9244647e-39
-0.86760223 -1.5424559 0.77469748 8.0163016e-39
-0.86296082 -1.5424559 0.77469748 7.9244647e-39
-0.8567723 -1.5424559 0.77469748 7.9244647e-39
-0.85213089 -1.5424559 0.77469748 7.9244661e-39
-0.84748948 -1.5424559 0.77469754 7.9244661e-39
-0.842848 -1.5424558 0.77469754 7.9244647e-39
-0.83820665 -1.5424558 0.77469754 7.9241032e-39
-0.83201802 -1.5424558 0.77469754 7.8319076e-39
-0.82737666 -1.5424558 0.77469754 7.8319076e-39
-0.82273531 -1.5424558 0.77469754 7.8315474e-39
-0.81809384 -1.5424558 0.77469754 7.7393518e-39
-0.81345248 -1.5424558 0.77469754 7.739349e-39
-0.80726385 -1.5424557 0.7746976 7.8311859e-39
-0.8026225 -1.5424558 0.77469754 7.8319062e-39
-0.79798114 -1.5424558 0.77469754 7.831909e-39
-0.79179251 -1.5424557 0.7746976 7.8322691e-39
-0.7871511 -1.5424557 0.7746976 7.7400735e-39
-0.78250968 -1.5424557 0.7746976 7.7393518e-39
-0.77786833 -1.5424557 0.7746976 7.7393504e-39
-0.77322692 -1.5424557 0.7746976 7.7389889e-39
-0.76703835 -1.5424557 0.7746976 7.739349e-39
-0.76239699 -1.5424557 0.7746976 7.8315446e-39
-0.75775552 -1.5424556 0.7746976 7.8315446e-39
-0.75156701 -1.5424556 0.7746976 7.9237403e-39
-0.74692559 -1.5424556 0.7746976 7.9237403e-39
-0.74228418 -1.5424556 0.7746976 7.9233801e-39
-0.73764277 -1.5424556 0.7746976 7.9233801e-39
-0.73300135 -1.5424556 0.7746976 7.9237403e-39
-0.72681284 -1.5424556 0.7746976 7.9237417e-39
-0.72217143 -1.5424556 0.7746976 7.9237389e-39
-0.71753001 -1.5424556 0.7746976 7.9230186e-39
-0.71288866 -1.5424556 0.7746976 7.8311817e-39
-0.70824718 -1.5424556 0.7746976 7.8311803e-39
-0.70205867 -1.5424556 0.7746976 7.8311817e-39
-0.69741732 -1.5424556 0.7746976 7.9233787e-39
-0.69277585 -1.5424554 0.77469766 7.9237389e-39
-0.68658733 -1.5424554 0.77469766 7.9237403e-39
-0.68194592 -1.5424554 0.77469766 7.9233801e-39
-0.67730451 -1.5424554 0.77469766 7.9237403e-39
-0.67266309 -1.5424554 0.77469766 7.9241018e-39
-0.66802168 -1.5424554 0.77469766 7.8319062e-39
-0.66183317 -1.5424554 0.77469766 7.8315446e-39
-0.65719175 -1.5424554 0.77469766 7.8319048e-39
-0.65255034 -1.5424554 0.77469766 7.9237403e-39
-0.64790899 -1.5424554 0.77469766 7.8315446e-39
-0.64326751 -1.5424554 0.77469766 7.8311831e-39
-0.637079 -1.5424553 0.77469772 7.8315446e-39
-0.63243759 -1.5424553 0.77469772 7.9237403e-39
-0.62779617 -1.5424553 0.77469772 7.8311817e-39
-0.62160766 -1.5424553 0.77469772 7.8308216e-39
-0.61696625 -1.5424553 0.77469772 7.8315432e-39
-0.61232483 -1.5424553 0.77469772 7.8319048e-39
-0.60768342 -1.5424553 0.77469772 7.9237389e-39
-0.60304201 -1.5424552 0.77469778 7.9237403e-39
-0.59685349 -1.5424552 0.77469778 7.9244647e-39
-0.59221208 -1.5424552 0.77469778 7.9241046e-39
-0.58757067 -1.5424552 0.77469778 7.9237417e-39
-0.58292925 -1.5424552 0.77469778 7.9233801e-39
-0.57828784 -1.5424552 0.77469778 7.8311831e-39
-0.57209933 -1.5424552 0.77469778 7.9233815e-39
-0.56745791 -1.5424552 0.77469778 8.0162974e-39
-0.5628165 -1.5424552 0.77469778 8.0159373e-39
-0.55662799 -1.5424552 0.77469778 8.0159359e-39
-0.55198652 -1.5424552 0.77469784 8.0155758e-39
-0.54734516 -1.5424552 0.77469784 7.9237403e-39
-0.54270375 -1.5424552 0.77469784 7.9237403e-39
-0.53806233 -1.5424552 0.77469784 7.9237417e-39
-0.53187382 -1.5424552 0.77469784 7.9241018e-39
-0.52723241 -1.5424552 0.77469784 7.9241018e-39
-0.52259099 -1.5424552 0.77469784 7.9237403e-39
-0.51794958 -1.5424552 0.77469784 7.9233801e-39
-0.51330817 -1.5424552 0.77469784 7.9233773e-39
-0.50711966 -1.5424552 0.77469784 7.9233773e-39
-0.50247824 -1.5424552 0.77469784 8.0155744e-39
-0.49783686 -1.5424552 0.7746979 8.0155744e-39
-0.49164829 -1.5424551 0.7746979 8.0152142e-39
-0.4870069 -1.5424551 0.7746979 8.0155744e-39
-0.48236549 -1.5424551 0.7746979 8.0155744e-39
-0.47772413 -1.5424551 0.7746979 8.0159359e-39
-0.47308269 -1.5424551 0.7746979 8.0159359e-39
-0.46689415 -1.542455 0.7746979 8.0159373e-39
-0.46225274 -1.542455 0.77469796 8.0159387e-39
-0.45761135 -1.542455 0.7746979 7.9237403e-39
-0.45296997 -1.542455 0.77469796 7.9233801e-39
-0.44832852 -1.542455 0.77469796 7.9237403e-39
-0.44214001 -1.542455 0.77469796 7.9237431e-39
-0.43749857 -1.5424548 0.77469802 7.9241032e-39
-0.43285719 -1.5424548 0.77469802 7.9244619e-39
-0.42666864 -1.5424548 0.77469802 8.0159359e-39
-0.42202723 -1.5424548 0.77469802 8.0159359e-39
-0.41738585 -1.5424548 0.77469802 8.0162988e-39
-0.4127444 -1.5424547 0.77469808 8.0166604e-39
-0.40810302 -1.5424548 0.77469802 8.1084959e-39
-0.40191451 -1.5424548 0.77469802 8.1084931e-39
-0.39727312 -1.5424548 0.77469802 8.1081329e-39
-0.39263168 -1.5424547 0.77469808 8.1081315e-39
-0.3879903 -1.5424547 0.77469808 8.1077714e-39
-0.38334888 -1.5424547 0.77469808 8.0155758e-39
-0.37716034 -1.5424547 0.77469808 7.9233801e-39
-0.37251896 -1.5424547 0.77469808 7.9233815e-39
-0.36787754 -1.5424547 0.77469814 7.9237403e-39
-0.361689 -1.5424546 0.77469814 7.9237403e-39
-0.35704762 -1.5424546 0.77469814 7.9237403e-39
-0.35240617 -1.5424546 0.77469814 7.9237389e-39
-0.34776479 -1.5424546 0.77469814 7.9237389e-39
-0.34312341 -1.5424546 0.77469814 7.9237403e-39
-0.33693483 -1.5424545 0.77469814 8.0159373e-39
-0.33229345 -1.5424545 0.7746982 8.0159373e-39
-0.32765204 -1.5424545 0.7746982 8.0159373e-39
-0.32301062 -1.5424545 0.7746982 8.0159373e-39
-0.31836924 -1.5424545 0.7746982 7.9237417e-39
-0.31218073 -1.5424545 0.7746982 7.9237417e-39
-0.30753928 -1.5424545 0.7746982 7.831546e-39
-0.3028979 -1.5424545 0.7746982 7.8311831e-39
-0.29670939 -1.5424545 0.7746982 7.8311845e-39
-0.292068 -1.5424545 0.7746982 7.9237417e-39
-0.28742656 -1.5424544 0.77469826 8.0155758e-39
-0.28278518 -1.5424544 0.77469826 8.0155744e-39
-0.27814376 -1.5424544 0.77469826 8.1077686e-39
-0.27195522 -1.5424544 0.77469826 8.1081315e-39
-0.26731384 -1.5424544 0.77469832 8.1999656e-39
-0.26267245 -1.5424544 0.77469826 8.10777e-39
-0.25803101 -1.5424544 0.77469826 8.1077714e-39
-0.25338963 -1.5424544 0.77469832 8.1077714e-39
-0.2472011 -1.5424544 0.77469832 8.1077714e-39
-0.24255969 -1.5424544 0.77469832 8.1077714e-39
-0.23791829 -1.5424542 0.77469838 8.10777e-39
-0.23172975 -1.5424542 0.77469838 8.0159331e-39
-0.22708835 -1.5424542 0.77469838 8.0159345e-39
-0.22244695 -1.5424542 0.77469838 8.0155758e-39
-0.21780555 -1.5424542 0.77469838 8.0155744e-39
-0.21316415 -1.5424542 0.77469838 8.0155744e-39
-0.20697562 -1.5424542 0.77469838 8.0155744e-39
-0.20233423 -1.5424542 0.77469838 8.0155744e-39
-0.19769283 -1.5424542 0.77469838 8.0155744e-39
-0.19305141 -1.5424541 0.77469844 8.0155744e-39
-0.18841003 -1.5424542 0.77469838 8.1074112e-39
-0.18222149 -1.5424541 0.77469844 8.10777e-39
-0.17758009 -1.5424541 0.77469844 8.10777e-39
-0.17293869 -1.542454 0.7746985 8.1077686e-39
-0.16675015 -1.542454 0.7746985 8.1077686e-39
-0.16210876 -1.5424541 0.77469844 8.10777e-39
-0.15746737 -1.542454 0.7746985 8.10777e-39
-0.15282597 -1.542454 0.7746985 8.1077714e-39
-0.14818457 -1.542454 0.7746985 8.0159359e-39
-0.14199603 -1.542454 0.7746985 7.9237389e-39
-0.13735463 -1.5424539 0.77469856 7.9233787e-39
-0.13271323 -1.542454 0.7746985 7.9233801e-39
-0.12807183 -1.5424539 0.77469856 7.831546e-39
-0.12343043 -1.5424539 0.77469856 7.831546e-39
-0.1172419 -1.5424539 0.77469856 7.831546e-39
-0.11260052 -1.542454 0.7746985 7.8315474e-39
-0.10795911 -1.5424539 0.77469856 7.8319062e-39
-0.10177058 -1.5424539 0.77469856 7.9237417e-39
-0.097129188 -1.5424539 0.77469856 7.9237431e-39
-0.092487782 -1.5424538 0.77469862 7.9241032e-39
-0.087846383 -1.5424538 0.77469862 7.9244633e-39
-0.083204985 -1.5424538 0.77469862 7.9241018e-39
-0.077016458 -1.5424538 0.77469862 7.9237389e-39
-0.072375059 -1.5424538 0.77469862 7.9237375e-39
-0.06773366 -1.5424538 0.77469862 7.9233773e-39
-0.063092269 -1.5424538 0.77469862 7.9233787e-39
-0.059997998 -1.5424536 0.77469867 7.9237389e-39
0.088526659 -1.5424533 0.77469897 7.9233801e-39
0.09316805 -1.5424533 0.77469897 7.9233801e-39
0.097809449 -1.5424533 0.77469897 7.9237417e-39
0.10245085 -1.5424533 0.77469897 7.9237417e-39
0.10709224 -1.5424533 0.77469897 7.9237403e-39
0.11173363 -1.5424533 0.77469897 7.8315446e-39
0.11792216 -1.5424532 0.77469903 7.7389889e-39
0.12256355 -1.5424532 0.77469903 7.739349e-39
0.12720495 -1.5424532 0.77469903 7.8315446e-39
0.13339347 -1.5424531 0.77469903 7.9237431e-39
0.13803487 -1.5424532 0.77469903 7.9241046e-39
0.14267626 -1.5424531 0.77469903 7.8322677e-39
0.14731765 -1.5424531 0.77469903 7.8322677e-39
0.15195903 -1.5424531 0.77469903 7.8322677e-39
0.15814757 -1.5424531 0.77469903 7.9241032e-39
0.16278896 -1.5424531 0.77469903 7.9241046e-39
0.16743034 -1.5424529 0.77469909 7.924106e-39
0.17207174 -1.5424529 0.77469909 7.9244647e-39
0.17671314 -1.5424529 0.77469909 7.9244647e-39
0.18290165 -1.5424529 0.77469909 7.9248291e-39
0.18754306 -1.5424531 0.77469903 7.9251892e-39
0.19218445 -1.5424529 0.77469909 7.9251878e-39
0.19837296 -1.5424529 0.77469909 8.0166618e-39
0.20301436 -1.5424529 0.77469909 8.016303e-39
0.24788114 -1.5424527 0.77469921 7.9241032e-39
0.25252253 -1.5424527 0.77469921 7.9241032e-39
0.25716391 -1.5424527 0.77469921 7.9237431e-39
0.2973893 -1.5424526 0.77469927 7.8319076e-39
0.30203068 -1.5424526 0.77469933 7.7400721e-39
0.30667207 -1.5424526 0.77469933 7.7397119e-39
0.31286058 -1.5424526 0.77469933 7.7397105e-39
0.31750202 -1.5424526 0.77469933 7.7397105e-39
0.32214341 -1.5424526 0.77469933 7.831546e-39
0.32833192 -1.5424525 0.77469939 7.8319062e-39
0.3329733 -1.5424525 0.77469939 7.8319076e-39
0.33761469 -1.5424526 0.77469933 7.8322663e-39
0.34225607 -1.5424525 0.77469939 7.9241046e-39
0.34689745 -1.5424525 0.77469939 7.9244661e-39
0.35308596 -1.5424525 0.77469939 7.9244647e-39
0.35772735 -1.5424525 0.77469939 7.9244647e-39
0.36236879 -1.5424525 0.77469939 7.9244647e-39
0.36701012 -1.5424523 0.77469945 7.9244661e-39
0.37165153 -1.5424523 0.77469945 7.9244661e-39
0.37784007 -1.5424523 0.77469945 7.9241046e-39
0.38248146 -1.5424523 0.77469945 7.9241032e-39
0.38712284 -1.5424523 0.77469945 7.8319076e-39
0.39331135 -1.5424523 0.77469945 7.8315488e-39
0.39795274 -1.5424523 0.77469945 7.8315474e-39
0.40259412 -1.5424522 0.77469951 7.7393504e-39
0.40723556 -1.5424523 0.77469945 7.739349e-39
0.41187689 -1.5424522 0.77469951 7.8311859e-39
0.4180654 -1.5424522 0.77469951 7.8319076e-39
0.42270684 -1.5424522 0.77469951 7.9241046e-39
0.4273482 -1.5424521 0.77469957 7.8322691e-39
0.43198961 -1.5424522 0.77469951 7.7400735e-39
0.43663099 -1.5424522 0.77469951 7.7393518e-39
0.44281951 -1.5424521 0.77469957 7.7389903e-39
0.44746089 -1.5424521 0.77469957 7.7389889e-39
0.45210227 -1.5424521 0.77469957 7.739349e-39
0.45829079 -1.5424521 0.77469957 7.8315446e-39
0.46293217 -1.5424521 0.77469957 7.9237403e-39
0.46757355 -1.5424521 0.77469957 7.9237403e-39
0.47221494 -1.542452 0.77469963 7.9237403e-39
0.47685632 -1.542452 0.77469963 7.9233801e-39
0.48304483 -1.542452 0.77469963 7.9233801e-39
0.48768622 -1.542452 0.77469963 7.9237417e-39
0.4923276 -1.542452 0.77469963 7.9237417e-39
0.49696898 -1.542452 0.77469963 7.9237389e-39
0.5016104 -1.5424519 0.77469969 7.9230186e-39
0.50779891 -1.5424519 0.77469969 7.8308216e-39
0.51244026 -1.5424519 0.77469969 7.8311817e-39
0.51708162 -1.5424519 0.77469969 7.8311817e-39
0.52327019 -1.5424519 0.77469969 7.9233787e-39
0.52791154 -1.5424517 0.77469975 7.9237403e-39
0.53255296 -1.5424519 0.77469969 7.9237403e-39
0.53719437 -1.5424519 0.77469969 7.9233801e-39
0.54183578 -1.5424519 0.77469969 7.9237403e-39
0.5480243 -1.5424519 0.77469969 7.9237431e-39
0.55266565 -1.5424517 0.77469975 7.8319048e-39
0.557307 -1.5424517 0.77469975 7.8315446e-39
0.56194842 -1.5424517 0.77469975 7.831546e-39
0.56658983 -1.5424517 0.77469981 7.9237403e-39
0.57277834 -1.5424517 0.77469975 7.8311845e-39
0.5774197 -1.5424517 0.77469981 7.8311817e-39
0.58206105 -1.5424517 0.77469981 7.8315446e-39
0.58824956 -1.5424517 0.77469981 7.8315446e-39
0.59289098 -1.5424517 0.77469981 7.8311803e-39
0.59753239 -1.5424517 0.77469981 7.8308216e-39
0.60217375 -1.5424517 0.77469981 7.8315432e-39
0.6068151 -1.5424516 0.77469987 7.8319048e-39
0.61300361 -1.5424516 0.77469987 7.9237389e-39
0.61764503 -1.5424516 0.77469987 7.9241018e-39
0.62228644 -1.5424516 0.77469987 7.9244647e-39
0.62692779 -1.5424516 0.77469987 7.9241046e-39
0.63156915 -1.5424516 0.77469993 7.9237417e-39
0.63775772 -1.5424516 0.77469987 7.8315432e-39
0.64239913 -1.5424516 0.77469987 7.8311831e-39
0.64704049 -1.5424516 0.77469993 7.9233815e-39
0.653229 -1.5424515 0.77469993 8.0162974e-39
0.65787035 -1.5424515 0.77469993 8.0159373e-39
0.66251171 -1.5424515 0.77469993 8.0159359e-39
0.66715312 -1.5424515 0.77469993 8.0155758e-39
0.67179453 -1.5424514 0.77469999 7.9237403e-39
0.67798305 -1.5424514 0.77469999 7.9237403e-39
0.6826244 -1.5424514 0.77469999 7.9237431e-39
0.68726575 -1.5424514 0.77469999 7.9241018e-39
0.69190717 -1.5424514 0.77469999 7.9241018e-39
0.69654858 -1.5424514 0.77469999 7.9237403e-39
0.70273709 -1.5424514 0.77470005 7.9233787e-39
0.70737845 -1.5424513 0.77470005 7.9233773e-39
0.7120198 -1.5424513 0.77470005 7.9233773e-39
0.71820831 -1.5424513 0.77470005 8.0155744e-39
0.72284973 -1.5424513 0.77470005 8.0155744e-39
0.72749108 -1.5424511 0.77470005 8.0152142e-39
0.73213249 -1.5424513 0.77470005 8.0155744e-39
0.73677385 -1.5424513 0.77470005 8.0155744e-39
0.74296236 -1.5424513 0.77470005 8.0159359e-39
0.74760371 -1.5424511 0.77470011 8.0159373e-39
0.75224519 -1.5424511 0.77470005 8.0159373e-39
0.7584337 -1.5424511 0.77470011 7.9241018e-39
0.76307505 -1.5424511 0.77470011 7.9237403e-39
0.76771641 -1.5424511 0.77470011 7.9233801e-39
0.77235776 -1.542451 0.77470016 7.9237417e-39
0.77699912 -1.542451 0.77470016 7.9237431e-39
0.78318763 -1.542451 0.77470016 7.9241032e-39
0.78782904 -1.542451 0.77470016 8.0162974e-39
0.79247046 -1.542451 0.77470016 8.0159359e-39
0.79711181 -1.542451 0.77470016 8.0159359e-39
0.80175316 -1.5424509 0.77470016 8.0162988e-39
0.80794173 -1.5424509 0.77470016 8.0166604e-39
0.81258309 -1.5424509 0.77470022 8.1084959e-39
0.8172245 -1.5424509 0.77470022 8.1084931e-39
0.82341295 -1.5424509 0.77470028 8.1081315e-39
0.82805437 -1.5424509 0.77470022 8.1081315e-39
0.83269572 -1.5424509 0.77470022 8.0159359e-39
0.83733714 -1.5424509 0.77470022 8.0155758e-39
0.84197855 -1.5424509 0.77470022 7.9233801e-39
0.848167 -1.5424509 0.77470028 7.9233815e-39
0.85280836 -1.5424509 0.77470028 7.9237417e-39
0.85744977 -1.5424509 0.77470028 7.9237403e-39
0.86209112 -1.5424509 0.77470028 7.9237403e-39
0.86673248 -1.5424509 0.77470028 7.9237389e-39
0.87292099 -1.5424508 0.77470034 7.9237389e-39
0.8775624 -1.5424508 0.77470034 8.0159359e-39
0.88220382 -1.5424508 0.77470034 8.0159373e-39
0.88839233 -1.5424508 0.77470034 8.0159373e-39
0.89303368 -1.5424508 0.77470034 8.0159373e-39
0.89767504 -1.5424508 0.77470034 7.9241018e-39
0.90231645 -1.5424508 0.77470034 7.9237417e-39
0.90695781 -1.5424507 0.7747004 7.9237417e-39
0.91159916 -1.5424507 0.7747004 7.831546e-39
-0.9125613 -1.5361983 0.77469736 7.5556822e-39
-0.90793473 -1.5361983 0.77469736 7.5553207e-39
-0.90330815 -1.5361983 0.77469736 7.5553193e-39
-0.89713943 -1.5361981 0.77469742 7.6471548e-39
-0.89251286 -1.5361981 0.77469742 7.7389903e-39
-0.88788629 -1.5361981 0.77469742 7.739349e-39
-0.88171756 -1.5361981 0.77469742 7.7397105e-39
-0.87709111 -1.5361981 0.77469742 7.8319076e-39
-0.87246454 -1.5361981 0.77469742 7.9241032e-39
-0.86783803 -1.5361981 0.77469742 7.9241046e-39
-0.86321151 -1.5361981 0.77469742 7.9244633e-39
-0.85704267 -1.536198 0.77469748 7.9241046e-39
-0.85241616 -1.536198 0.77469748 7.9241046e-39
-0.84778965 -1.536198 0.77469748 7.9244633e-39
-0.84162092 -1.536198 0.77469748 7.9244647e-39
-0.83699435 -1.536198 0.77469748 7.8322705e-39
-0.83236778 -1.536198 0.77469748 7.8322705e-39
-0.82774127 -1.536198 0.77469748 7.8322691e-39
-0.82311475 -1.536198 0.77469748 7.7400721e-39
-0.81694603 -1.536198 0.77469748 7.7393532e-39
-0.81231946 -1.536198 0.77469748 7.7393504e-39
-0.80769289 -1.5361979 0.77469754 7.739349e-39
-0.80306631 -1.5361979 0.77469754 7.8311859e-39
-0.79843974 -1.5361979 0.77469754 7.8319062e-39
-0.79227102 -1.5361979 0.77469754 7.8322677e-39
-0.78764451 -1.5361979 0.77469754 7.8319104e-39
-0.78301799 -1.5361979 0.77469754 7.7397133e-39
-0.77684927 -1.5361979 0.77469754 7.739349e-39
-0.7722227 -1.5361979 0.77469754 7.739349e-39
-0.76759613 -1.5361979 0.77469754 7.8311845e-39
-0.76296961 -1.5361979 0.77469754 7.831546e-39
-0.7583431 -1.5361979 0.77469754 7.9237403e-39
-0.75217426 -1.5361978 0.7746976 7.9237403e-39
-0.74754781 -1.5361978 0.7746976 7.9237403e-39
-0.74292123 -1.5361978 0.7746976 7.9237403e-39
-0.73675251 -1.5361978 0.7746976 7.9237403e-39
-0.732126 -1.5361978 0.7746976 7.9237403e-39
-0.72749949 -1.5361978 0.7746976 7.9237417e-39
-0.72287291 -1.5361978 0.7746976 7.9237403e-39
-0.71824634 -1.5361978 0.77469766 7.9237403e-39
-0.71207762 -1.5361978 0.77469766 7.8315432e-39
-0.70745105 -1.5361978 0.77469766 7.8311831e-39
-0.70282447 -1.5361978 0.77469766 7.8308216e-39
-0.69665575 -1.5361978 0.77469766 7.8311817e-39
-0.69202924 -1.5361978 0.77469766 7.9237389e-39
-0.68740273 -1.5361978 0.77469766 7.9237403e-39
-0.68277615 -1.5361978 0.77469766 7.9233801e-39
-0.67814958 -1.5361978 0.77469766 7.9233815e-39
-0.67198086 -1.5361978 0.77469766 7.9237417e-39
-0.66735435 -1.5361977 0.77469772 7.8315446e-39
-0.66272783 -1.5361977 0.77469772 7.8311831e-39
-0.65655911 -1.5361977 0.77469772 7.8315432e-39
-0.65193254 -1.5361977 0.77469772 7.8319048e-39
-0.64730597 -1.5361977 0.77469772 7.7393476e-39
-0.64267945 -1.5361977 0.77469772 7.7389847e-39
-0.63805294 -1.5361977 0.77469772 7.8311817e-39
-0.63188416 -1.5361977 0.77469778 7.8315432e-39
-0.62725759 -1.5361975 0.77469778 7.8311831e-39
-0.62263107 -1.5361975 0.77469778 7.8311803e-39
-0.61800456 -1.5361977 0.77469772 7.8311817e-39
-0.61337799 -1.5361975 0.77469778 7.8311817e-39
-0.60720932 -1.5361975 0.77469778 7.8311817e-39
-0.60258275 -1.5361975 0.77469778 7.8315446e-39
-0.59795618 -1.5361975 0.77469778 7.9237445e-39
-0.59178746 -1.5361975 0.77469778 7.9241032e-39
-0.58716094 -1.5361975 0.77469778 7.9237417e-39
-0.58253443 -1.5361975 0.77469778 7.8315446e-39
-0.5779078 -1.5361974 0.77469784 7.9233787e-39
-0.57328129 -1.5361974 0.77469784 7.9233787e-39
-0.56711257 -1.5361974 0.77469784 8.0155758e-39
-0.56248599 -1.5361974 0.77469784 8.0159373e-39
-0.55785954 -1.5361974 0.77469784 8.0159387e-39
-0.55169082 -1.5361974 0.77469784 7.9241032e-39
-0.54706424 -1.5361974 0.77469784 7.9241018e-39
-0.54243767 -1.5361974 0.77469784 7.9237417e-39
-0.53781116 -1.5361974 0.77469784 7.9237403e-39
-0.53318465 -1.5361974 0.77469784 7.9237417e-39
-0.52701592 -1.5361974 0.77469784 7.9237431e-39
-0.52238935 -1.5361974 0.77469784 7.9237403e-39
-0.51776278 -1.5361974 0.77469784 7.8315418e-39
-0.51159406 -1.5361973 0.7746979 7.8311817e-39
-0.50696754 -1.5361973 0.7746979 7.9230172e-39
-0.50234103 -1.5361973 0.7746979 7.9230172e-39
-0.49771446 -1.5361973 0.7746979 7.9233773e-39
-0.49308792 -1.5361973 0.7746979 7.9230172e-39
-0.48691919 -1.5361973 0.7746979 7.9233773e-39
-0.48229265 -1.5361973 0.7746979 8.0155758e-39
-0.47766611 -1.5361972 0.7746979 8.0155758e-39
-0.47303957 -1.5361972 0.77469796 8.0155744e-39
-0.46841303 -1.5361972 0.77469796 8.0155744e-39
-0.4622443 -1.5361972 0.77469796 8.0155758e-39
-0.4576177 -1.5361971 0.77469802 7.9237389e-39
-0.45299122 -1.5361971 0.77469802 7.8315446e-39
-0.44682249 -1.5361971 0.77469802 7.831546e-39
-0.44219595 -1.5361971 0.77469802 7.9237431e-39
-0.43756941 -1.5361971 0.77469802 7.9241018e-39
-0.43294287 -1.5361971 0.77469802 8.0159387e-39
-0.42831632 -1.5361971 0.77469802 8.0159359e-39
-0.4221476 -1.5361971 0.77469802 8.0155758e-39
-0.41752106 -1.5361971 0.77469802 8.016296e-39
-0.41289452 -1.5361971 0.77469802 8.0162988e-39
-0.40672579 -1.5361969 0.77469808 8.1084945e-39
-0.40209925 -1.5361969 0.77469808 8.1084931e-39
-0.39747271 -1.5361969 0.77469808 8.1084917e-39
-0.39284617 -1.5361969 0.77469808 8.1081315e-39
-0.38821962 -1.5361969 0.77469808 8.1081315e-39
-0.3820509 -1.5361969 0.77469808 8.0155758e-39
-0.37742436 -1.5361969 0.77469808 7.9237389e-39
-0.37279782 -1.5361969 0.77469808 7.9237403e-39
-0.36662909 -1.5361969 0.77469808 7.9241004e-39
-0.36200255 -1.5361969 0.77469808 7.9237417e-39
-0.35737601 -1.5361969 0.77469814 7.9237403e-39
-0.35274947 -1.5361969 0.77469808 7.9237403e-39
-0.34812292 -1.5361968 0.77469814 8.0155758e-39
-0.34195423 -1.5361969 0.77469814 8.0159359e-39
-0.33732766 -1.5361968 0.77469814 8.1081301e-39
-0.33270115 -1.5361969 0.77469814 8.016296e-39
-0.32807457 -1.5361968 0.77469814 8.0159373e-39
-0.32344809 -1.5361968 0.77469814 7.9237417e-39
-0.31727937 -1.5361968 0.77469814 7.9233815e-39
-0.31265283 -1.5361968 0.77469814 7.9233815e-39
-0.30802628 -1.5361967 0.77469814 7.8315446e-39
-0.30185756 -1.5361967 0.7746982 7.8311831e-39
-0.29723102 -1.5361967 0.7746982 7.8311845e-39
-0.29260448 -1.5361967 0.7746982 7.8315446e-39
-0.28797793 -1.5361967 0.7746982 7.9237389e-39
-0.28335139 -1.5361967 0.7746982 8.0152128e-39
-0.27718267 -1.5361967 0.77469826 8.015573e-39
-0.27255613 -1.5361967 0.7746982 8.10777e-39
-0.26792958 -1.5361966 0.77469826 8.1077686e-39
-0.26176086 -1.5361966 0.77469826 8.107407e-39
-0.25713432 -1.5361966 0.77469826 8.1074084e-39
-0.25250778 -1.5361965 0.77469826 8.1077686e-39
-0.24788125 -1.5361965 0.77469832 8.1077686e-39
-0.24325472 -1.5361965 0.77469826 8.1074098e-39
-0.23708601 -1.5361966 0.77469826 8.1074084e-39
-0.23245947 -1.5361965 0.77469832 8.1074084e-39
-0.22783293 -1.5361965 0.77469832 8.015573e-39
-0.22166421 -1.5361965 0.77469832 8.0159331e-39
-0.21703768 -1.5361965 0.77469832 8.0159345e-39
-0.21241114 -1.5361965 0.77469832 8.0159359e-39
-0.20778459 -1.5361964 0.77469838 8.0159373e-39
-0.20315805 -1.5361964 0.77469838 8.0159373e-39
-0.19698934 -1.5361964 0.77469838 8.0159373e-39
-0.1923628 -1.5361964 0.77469838 8.0159373e-39
-0.18773627 -1.5361964 0.77469838 8.0162974e-39
-0.18156755 -1.5361964 0.77469838 8.1081343e-39
-0.17694101 -1.5361962 0.77469844 8.1084931e-39
-0.17231447 -1.5361962 0.77469844 8.1081329e-39
-0.16768794 -1.5361962 0.77469844 8.1081315e-39
-0.1630614 -1.5361962 0.77469844 8.1077714e-39
-0.15689269 -1.5361962 0.77469844 8.1077686e-39
-0.15226614 -1.5361962 0.77469844 8.0155744e-39
-0.1476396 -1.5361961 0.7746985 8.015573e-39
-0.14301307 -1.5361962 0.77469844 8.015573e-39
-0.13838655 -1.5361962 0.77469844 7.9233773e-39
-0.13221782 -1.5361962 0.7746985 7.8315432e-39
-0.12759128 -1.5361961 0.7746985 7.8315446e-39
-0.12296475 -1.5361961 0.7746985 7.8311845e-39
-0.11679605 -1.5361961 0.7746985 7.8311845e-39
-0.1121695 -1.5361961 0.7746985 7.831546e-39
-0.10754296 -1.5361961 0.7746985 7.831546e-39
-0.10291643 -1.5361961 0.77469856 7.8319048e-39
